# .PCD v0.7 - Point Cloud Data file format
VERSION 0.7
FIELDS x y z intensity
SIZE 4 4 4 4
TYPE F F F F
COUNT 1 1 1 1
WIDTH 1135
HEIGHT 1
VIEWPOINT 0 0 0 1 0 0 0
POINTS 1135
DATA ascii
42.033943 -2.2177463 -0.66026372 5.8939996
42.327881 -2.2403929 -0.6635918 5.9325714
42.48032 -2.2641246 -0.66007167 5.9498343
42.780396 -2.2803063 -0.65445256 6.0020003
42.905815 -2.2951589 -0.66427004 6.0497952
43.072063 -2.2779245 -0.66418916 6.0710368
43.330036 -2.2152245 -0.64389843 6.0575004
43.498379 -2.2401733 -0.66559541 6.1458187
43.700661 -2.2089787 -0.64881194 6.158
43.930248 -2.2893918 -0.65548807 6.3200002
44.117657 -2.316123 -0.67020822 6.4204173
44.292805 -2.2595766 -0.66605026 6.4323344
44.465931 -2.2660711 -0.67363662 6.5103755
44.619709 -2.3471701 -0.69271654 6.6603336
46.458664 -2.352942 -0.71729994 7.6000004
47.544201 -2.3663125 -0.75733262 8.3180008
47.853874 -2.3314297 -0.76750666 8.5100002
32.849987 -2.0259929 -0.75927836 10.872
34.7617 -2.0896757 -0.78926659 8.882
39.636253 -2.1328747 -0.73358047 6.0420008
39.906113 -2.1832924 -0.72008586 5.9640002
40.099464 -2.0852025 -0.70973074 5.9197149
40.289734 -2.1264977 -0.70182008 5.8996
40.519615 -2.0883687 -0.68819702 5.7645006
40.796925 -2.1800025 -0.68586314 5.8140006
40.888256 -2.116647 -0.67985934 5.7943339
41.173378 -2.0206678 -0.65879822 5.6140003
41.31871 -2.1290121 -0.67383188 5.8135009
41.514782 -2.06914 -0.65815943 5.7515001
41.714066 -2.0492163 -0.65159065 5.6901054
41.903755 -2.0602732 -0.64808047 5.6838408
42.096687 -2.084012 -0.65275848 5.7433686
42.293938 -2.1406727 -0.65735418 5.8179998
42.496937 -2.1241326 -0.66319007 5.8564291
42.715145 -2.0632832 -0.64608848 5.7896929
42.884235 -2.1656337 -0.65050566 5.9096003
43.125809 -2.1467855 -0.64946604 5.9509635
43.292618 -2.1310034 -0.65139914 5.9814444
43.504684 -2.1314962 -0.6471656 6.0353341
43.701668 -2.1399899 -0.65436143 6.1101465
43.856995 -2.1321323 -0.66262054 6.1575236
44.158714 -2.126621 -0.64997333 6.2610006
44.301792 -2.1724138 -0.68209952 6.3649344
44.46991 -2.1807184 -0.72668099 6.4393334
47.903187 -2.109369 -0.75528389 8.3900013
48.013004 -2.0917792 -0.75886691 8.4580011
32.89436 -1.8882279 -0.75292188 10.761333
34.785019 -1.9511414 -0.7826795 8.776001
34.816292 -1.8498619 -0.77697051 8.6880007
38.149929 -1.8728584 -0.79579067 6.3380008
40.121964 -1.9317541 -0.69157916 5.7833343
40.349846 -1.8393424 -0.66931903 5.5210004
40.46413 -1.8713099 -0.67348009 5.6160007
40.62421 -1.9994905 -0.67615902 5.6620002
41.198208 -1.9466441 -0.65131938 5.5380001
41.291763 -1.8722055 -0.64020604 5.4446673
41.434528 -1.8913831 -0.64893109 5.5640006
41.720104 -1.9032352 -0.64563149 5.5546007
41.882267 -1.9519286 -0.65425414 5.6570678
42.180725 -1.9608274 -0.66997725 5.7400002
42.532188 -1.8859341 -0.62509286 5.5615463
42.644974 -1.94671 -0.63703322 5.6670003
43.155224 -1.9343237 -0.62057012 5.7273335
33.025589 -1.6790181 -0.7403416 10.540001
34.376976 -1.6776712 -0.79791802 8.7819996
34.404747 -1.6007016 -0.79341072 8.7139997
34.847046 -1.6906881 -0.76925373 8.5652008
38.108097 -1.6648321 -0.7827062 6.1833339
40.197624 -1.7693956 -0.67397881 5.5280004
40.257095 -1.7312162 -0.6658417 5.4555006
40.565151 -1.7353032 -0.65488195 5.4120007
40.763672 -1.6837385 -0.64241815 5.3260002
41.358212 -1.750136 -0.62588054 5.3100009
41.503571 -1.6884284 -0.62441534 5.302743
41.670441 -1.6740828 -0.62249357 5.3076525
41.89455 -1.6790847 -0.60963482 5.2630916
42.101887 -1.7409987 -0.61161387 5.3407278
42.30183 -1.7686268 -0.61125028 5.3908
42.407764 -1.7873299 -0.61165321 5.4240003
47.271988 -1.6749687 -0.70091003 7.6320009
49.433197 -1.6819749 -0.79015464 9.5580006
33.05302 -1.5141078 -0.73406953 10.432
34.364307 -1.5924242 -0.79587448 8.7419996
34.445492 -1.4613069 -0.78593373 8.5993338
34.914898 -1.472059 -0.75706637 8.3780003
37.977478 -1.4021733 -0.77251089 6.0380001
38.054176 -1.4950701 -0.77375746 6.0712004
39.26646 -1.4162023 -0.69401097 5.5140004
39.488911 -1.4802639 -0.68607426 5.4820008
41.583324 -1.5988843 -0.60910106 5.1740003
41.620148 -1.5909102 -0.60748786 5.1660008
49.385483 -1.4601595 -0.77671045 9.3980007
49.426411 -1.5072029 -0.78105414 9.4580011
33.166477 -1.3437901 -0.72361386 10.247999
34.498188 -1.29782 -0.77689111 8.4619999
34.927971 -1.3004738 -0.75025702 8.2651997
37.898563 -1.296515 -0.77075076 5.9987278
38.936646 -1.2222652 -0.69938427 5.4920006
39.090904 -1.2974732 -0.69535756 5.485539
39.247574 -1.3754393 -0.69181585 5.4852009
47.199654 -1.2932284 -0.66798294 7.5220008
47.240646 -1.274519 -0.67689764 7.4129004
48.067566 -1.2917724 -0.71306413 7.9760003
49.488354 -1.2926981 -0.7736243 9.3985729
33.353519 -1.0759923 -0.70686483 9.9531422
34.529747 -1.099157 -0.76823753 8.3240004
34.959049 -1.0853804 -0.74088866 8.1146669
36.822292 -1.0539888 -0.79915524 7.1233344
37.733185 -1.0704637 -0.76741689 5.9206672
37.814297 -1.1673057 -0.76787835 5.9460006
38.555908 -1.0116729 -0.70950365 5.5110006
38.703953 -1.0911717 -0.70505786 5.4978466
38.872692 -1.1740464 -0.69986087 5.481667
41.727776 -1.0045156 -0.72075069 4.6920004
43.11887 -1.0176582 -0.7142247 4.8730001
43.282944 -1.0171347 -0.71637791 4.9114122
43.489498 -1.014459 -0.71980971 4.9745336
43.713509 -1.0232255 -0.7260043 5.06425
43.904148 -1.0225028 -0.73110461 5.1429095
45.632664 -1.085754 -0.66449285 6.0690007
47.25753 -1.096081 -0.68253398 7.2981205
48.133953 -1.098398 -0.70528805 7.9100003
48.26487 -1.0057065 -0.70661402 7.960001
49.535976 -1.1115289 -0.76743472 9.3480005
49.662193 -1.0336632 -0.77026862 9.420001
33.140434 -0.87422436 -0.71146262 10.0452
33.251465 -0.95385075 -0.70828772 9.9840002
34.516727 -0.88298935 -0.76227272 8.216857
34.93993 -0.87781507 -0.73533279 8.0133333
35.015137 -0.82683396 -0.728562 7.9220004
36.740719 -0.89543724 -0.79484379 7.078001
36.810696 -0.99810839 -0.79643422 7.0940003
37.382889 -0.81397653 -0.77873045 5.9580002
37.522869 -0.85835534 -0.76992065 5.8959999
37.640129 -0.97321427 -0.76809955 5.9050007
38.147087 -0.81143498 -0.72556686 5.5900002
38.300774 -0.88107955 -0.71878511 5.5520005
38.476425 -0.97247934 -0.71236199 5.523334
41.344296 -0.83887237 -0.71108687 4.5517144
41.447746 -0.85487413 -0.70967072 4.557333
41.701103 -0.9331612 -0.71242881 4.6211109
41.897751 -0.94600689 -0.70972264 4.632154
42.104179 -0.90997314 -0.70174211 4.6029234
42.301949 -0.89157218 -0.69720674 4.6000004
42.502956 -0.88946778 -0.69577122 4.6226153
42.722752 -0.88004279 -0.69447005 4.643867
42.905003 -0.87753761 -0.69311553 4.668963
43.096352 -0.96034753 -0.70412213 4.7997389
43.316734 -0.96121383 -0.70663714 4.8784704
43.512272 -0.94768792 -0.70970154 4.9403162
43.703568 -0.94624537 -0.71510023 5.0105004
43.9025 -0.88309902 -0.71352005 5.0430002
44.097206 -0.90973955 -0.72362447 5.158
44.265507 -0.85900158 -0.72455019 5.1773334
45.673286 -0.91180295 -0.67605299 5.9380007
47.294098 -0.89678967 -0.67388582 7.1977224
47.433495 -0.85081786 -0.68159485 7.2544446
47.628853 -0.96772766 -0.7946927 7.3460002
48.323597 -0.95316648 -0.70671684 7.977201
48.509644 -0.8714239 -0.71185768 8.0837154
49.772766 -0.96014494 -0.77264065 9.4819994
49.829803 -0.8630203 -0.77132404 9.4870014
30.395317 -0.66215825 -0.63372493 11.972001
33.112526 -0.69269621 -0.70789254 9.9876003
34.483875 -0.68669254 -0.75852871 8.1413336
34.928497 -0.68609023 -0.72995996 7.9180002
36.541382 -0.68125403 -0.79582983 7.0926671
36.637974 -0.77812338 -0.79478592 7.0793343
37.166485 -0.64888966 -0.78668702 5.9924002
37.295326 -0.72588187 -0.78043646 5.9553337
37.400581 -0.7650497 -0.77394253 5.9100008
37.926231 -0.66564214 -0.73295784 5.6194
38.08762 -0.76451069 -0.72691798 5.590889
39.529045 -0.66199493 -0.7948004 4.9331999
39.69986 -0.63671857 -0.77874297 4.8313336
39.873093 -0.61318523 -0.76319343 4.7339997
40.129608 -0.62193644 -0.74636197 4.6395006
40.29813 -0.62063414 -0.73530775 4.5776367
40.95166 -0.6064806 -0.6979031 4.3828001
41.107578 -0.64349532 -0.69569427 4.3903079
41.250206 -0.74674731 -0.70291984 4.4711432
41.550255 -0.74411052 -0.69262338 4.4380002
41.723953 -0.64902633 -0.66794658 4.2431111
41.90213 -0.66820413 -0.66705006 4.2647142
42.101711 -0.65621525 -0.66309428 4.272615
42.299065 -0.66994989 -0.66351658 4.3152308
42.504215 -0.73360628 -0.67117351 4.4173331
42.687534 -0.76437938 -0.67524952 4.4896002
42.878315 -0.71162379 -0.68940079 4.5212007
43.114857 -0.70030063 -0.70246947 4.5897779
43.295582 -0.70705527 -0.70473713 4.6474175
43.492573 -0.68128222 -0.70967603 4.6913338
43.699371 -0.67340028 -0.71451718 4.7613039
43.893909 -0.64808965 -0.71200013 4.8194547
44.089027 -0.70262641 -0.70018935 4.9495792
44.287186 -0.7083118 -0.70859665 5.0808001
44.440407 -0.66019237 -0.71011084 5.0855002
45.681854 -0.66420293 -0.65875018 5.7493343
45.827679 -0.60442257 -0.6624707 5.7980008
47.350906 -0.79457736 -0.64696574 7.236001
48.584099 -0.78603935 -0.71127003 8.0980015
48.65625 -0.69851321 -0.71062374 8.1111441
49.9086 -0.69834739 -0.76842052 9.4825726
30.416992 -0.49877214 -0.63129717 11.895
33.046497 -0.51207751 -0.70639759 9.9680014
34.537998 -0.47520414 -0.74839723 7.9867997
34.961788 -0.49037018 -0.72157496 7.7859998
36.503387 -0.48926869 -0.78746331 7.0032005
37.099625 -0.51296628 -0.78402066 5.9473333
37.731758 -0.48774779 -0.73702818 5.6192732
37.830009 -0.58280033 -0.73516363 5.6213341
39.936882 -0.59272778 -0.756239 4.6884003
40.045616 -0.59524584 -0.74891233 4.6468
40.501217 -0.58182245 -0.71839899 4.4746666
40.702225 -0.57689226 -0.70665222 4.4127698
40.871048 -0.58271527 -0.69879591 4.3770003
41.151478 -0.43693513 -0.66115397 4.0728002
41.299538 -0.48343298 -0.65838915 4.0775867
41.499153 -0.51096851 -0.65507942 4.0916433
41.668407 -0.50928575 -0.66164285 4.1459999
41.900475 -0.49174541 -0.68717182 4.2820001
42.100739 -0.47243333 -0.6840694 4.2606673
42.310368 -0.47678813 -0.68517047 4.2733331
42.505024 -0.51117289 -0.69113106 4.324769
42.71603 -0.49743 -0.6737085 4.3010473
42.88208 -0.50477964 -0.66996419 4.3312635
43.024513 -0.59655643 -0.6588816 4.4220009
43.968056 -0.58092833 -0.74389887 4.7820005
44.107574 -0.50833881 -0.73130393 4.7810588
44.30827 -0.5139699 -0.69263101 4.9076009
44.476326 -0.48805413 -0.69403702 5.0100002
44.647953 -0.45329279 -0.69781476 5.0311432
45.733292 -0.57129192 -0.65498149 5.7110009
45.837627 -0.58517647 -0.66168642 5.7900004
48.736012 -0.53188854 -0.70662624 8.0906668
48.828812 -0.44011083 -0.70723796 8.1233339
49.960617 -0.52408391 -0.76397252 9.4530001
50.028355 -0.42854992 -0.76378506 9.474
30.48377 -0.30149657 -0.62675726 11.766001
33.025917 -0.31183571 -0.7023294 9.9024
34.543613 -0.29671702 -0.74283099 7.8940005
34.972813 -0.29436597 -0.71487778 7.6760001
36.547352 -0.29048595 -0.77316576 6.848001
37.065735 -0.28279373 -0.77290821 5.8184004
37.572483 -0.26572186 -0.73626155 5.5751429
37.641781 -0.35186896 -0.73576212 5.5852003
39.490879 -0.21179709 -0.7460019 4.4385004
39.725452 -0.22642398 -0.7281239 4.3366666
39.906345 -0.22786702 -0.71413314 4.2567697
40.105961 -0.2472783 -0.70167029 4.192462
40.301342 -0.24118163 -0.68752557 4.1143336
40.5075 -0.24438813 -0.67241549 4.0328236
40.701656 -0.25548109 -0.65463746 3.9345524
40.89983 -0.30857763 -0.65159065 3.9478066
41.095097 -0.33398727 -0.65480989 4.0095716
41.315037 -0.30022177 -0.67185813 4.1512003
41.508656 -0.34334081 -0.66628903 4.1238823
41.703709 -0.32097447 -0.64933074 4.0279999
41.899559 -0.30124658 -0.62109715 3.8977334
42.097775 -0.31195021 -0.62014592 3.9288576
42.299526 -0.32020512 -0.62009484 3.9681332
42.506638 -0.36004829 -0.62514013 4.0493846
42.644588 -0.39019781 -0.62954855 4.1120005
44.320816 -0.32834104 -0.72215283 4.7154121
44.509304 -0.30598143 -0.68830645 4.8403783
44.704998 -0.28680789 -0.68529618 4.9909034
44.892429 -0.28746584 -0.69376856 5.0528574
45.014587 -0.22477496 -0.69427508 5.0799999
48.928059 -0.35005298 -0.70847648 8.1646681
49.030968 -0.24322969 -0.70932186 8.2030001
50.120628 -0.32266465 -0.7646696 9.5148001
50.216099 -0.23646796 -0.76661658 9.5680008
30.023447 -0.082813084 -0.65238327 11.973001
30.39558 -0.0046598911 -0.62769186 11.756001
30.465612 -0.11160026 -0.62578261 11.722401
33.071484 -0.10431991 -0.69495195 9.7768002
34.59317 -0.14574623 -0.73502445 7.7779999
34.626373 -0.05196166 -0.73004705 7.7046666
34.981686 -0.091149487 -0.70831251 7.5680003
35.005188 -0.076395988 -0.70622897 7.5400004
36.505615 -0.10286082 -0.76603466 6.7724452
36.95406 -0.10144676 -0.77249205 5.7877784
37.003616 -0.19101787 -0.7731095 5.8060002
37.475052 -0.10881316 -0.7350893 5.5409098
38.917515 -0.053877331 -0.78223825 4.6300001
39.103954 -0.12249178 -0.77132279 4.5743074
39.30788 -0.15365367 -0.75359291 4.4676666
39.494408 -0.065081388 -0.70988172 4.1525879
39.702496 -0.080122337 -0.70044523 4.1736803
39.901005 -0.08167655 -0.688685 4.1546402
40.103634 -0.095270462 -0.67774874 4.0940003
40.300522 -0.10977302 -0.66655558 4.0226402
40.493626 -0.1187278 -0.65939242 3.9928572
40.70171 -0.09609165 -0.66728705 4.1083999
40.901272 -0.14872168 -0.66572815 4.0977144
41.099609 -0.067377515 -0.62277013 3.7598946
41.301033 -0.11201888 -0.61172748 3.7077498
41.483208 -0.170384 -0.61341459 3.7560003
41.641911 -0.17680968 -0.61016512 3.7605717
44.561131 -0.14546369 -0.70754105 4.6875386
44.700397 -0.075805418 -0.68513364 4.7372313
44.895195 -0.11563033 -0.68013269 5.0064793
45.089375 -0.087095216 -0.68687558 5.0612588
45.248734 -0.023972988 -0.68931901 5.0908003
49.124924 -0.10027048 -0.70833063 8.2195005
50.307732 -0.1121081 -0.76711506 9.6048574
30.042683 0.096247792 -0.65008903 11.902
30.442547 0.11652011 -0.62472892 11.675001
33.115639 0.097843364 -0.68793082 9.6576004
34.707245 0.10909758 -0.71985179 7.5588007
34.991268 0.064337574 -0.70322007 7.4853339
35.005688 0.16034205 -0.69954133 7.428
36.462936 0.10775149 -0.7581836 6.6895003
36.916233 0.10902838 -0.76408392 5.6880007
37.333359 0.092118979 -0.73588443 5.5187283
37.414143 0.0077223778 -0.73346412 5.5100007
38.587269 0.17676353 -0.79352152 4.6660008
38.707684 0.1071014 -0.78756988 4.6382504
38.911861 0.10430241 -0.75105572 4.3768573
39.105553 0.12690103 -0.727777 4.3634782
39.295097 0.07117708 -0.71889621 4.3380766
39.486267 0.037081335 -0.72052807 4.5041537
39.667492 0.019421428 -0.71187896 4.4590006
39.97031 0.18477702 -0.65072662 3.7726669
40.099422 0.17596047 -0.64198571 3.7262664
40.302032 0.14605123 -0.63110304 3.67625
40.503548 0.13035752 -0.61990941 3.6238668
40.701046 0.093581118 -0.61286324 3.6041176
40.901249 0.044924185 -0.6085214 3.6067502
41.014832 0.0070678391 -0.60793269 3.6233337
44.7593 0.040505476 -0.72265279 4.6391435
44.881763 0.12073579 -0.68108916 4.6744142
45.110188 0.087148525 -0.67568696 5.0318828
45.309799 0.089549765 -0.68463135 5.0905709
45.481247 0.15197505 -0.68931967 5.1486669
49.199688 0.0061709881 -0.70803422 8.2379999
49.253284 0.10757865 -0.70693129 8.2420015
50.380016 0.085319676 -0.76417691 9.5993347
50.402988 0.089086533 -0.76532692 9.6193342
50.844311 0.13964097 -0.79005331 9.7913332
30.133057 0.27337861 -0.64485276 11.765335
30.200493 0.37753558 -0.64118528 11.672001
30.529209 0.31064856 -0.61954546 11.536
33.167988 0.29824352 -0.68068838 9.5344
34.751751 0.29140154 -0.71182257 7.4380002
35.050434 0.31236029 -0.69225127 7.3193336
36.398216 0.24486613 -0.75615972 6.670001
36.417145 0.3023276 -0.75188929 6.6237149
36.874607 0.30859947 -0.75718212 5.604001
37.291218 0.30033663 -0.72783118 5.4228897
38.500122 0.28142089 -0.79325664 4.6502671
38.747936 0.34410745 -0.7372008 4.3382502
38.889191 0.26072299 -0.7370441 4.4658403
39.031563 0.21147212 -0.73998642 4.6836004
39.341442 0.37911561 -0.68416756 3.9280005
39.494007 0.32956091 -0.67515373 3.8828571
39.688263 0.27218226 -0.66409868 3.829
39.877445 0.22091231 -0.65401846 3.7823076
44.97496 0.22250628 -0.70554692 4.6380005
45.076736 0.30049402 -0.67798489 4.6875181
45.297234 0.32023507 -0.66936374 5.0374665
45.538891 0.23182099 -0.68868744 5.1836004
45.705334 0.30297315 -0.693156 5.2381668
45.879723 0.37150243 -0.70032126 5.3329091
49.15358 0.35659361 -0.69109666 8.0460014
49.25193 0.24997318 -0.7010833 8.1800003
50.140068 0.37055802 -0.74098587 9.2740011
50.252792 0.27769959 -0.75045681 9.4120007
50.789726 0.3595686 -0.77940106 9.6640015
50.814934 0.25912511 -0.78424597 9.7220001
30.310129 0.49152312 -0.63567299 11.536
30.681938 0.48073137 -0.61189055 11.342001
33.162155 0.45772785 -0.67746949 9.4829998
33.208229 0.56099749 -0.67288381 9.4040003
34.792118 0.4877739 -0.70389533 7.3180008
34.815289 0.51373893 -0.7015509 7.2860007
35.101566 0.50556904 -0.68353158 7.1890006
36.455822 0.51828158 -0.73847139 6.4791436
36.860165 0.509233 -0.74809664 5.5028892
37.256485 0.49462336 -0.72042739 5.3360009
38.329971 0.49270153 -0.79336649 4.6249089
38.546429 0.53905839 -0.73950857 4.2550001
38.66877 0.47857249 -0.74047327 4.5393338
38.952919 0.56498045 -0.70478016 4.0254288
39.09523 0.47845295 -0.69846249 3.9993336
39.255367 0.42115927 -0.68817222 3.9450002
40.719654 0.59743041 -0.68001491 3.2946665
40.901806 0.57633984 -0.67028344 3.2562668
41.09959 0.55179977 -0.66174138 3.2274737
41.320408 0.53070211 -0.64310813 3.1226349
41.500603 0.51611978 -0.63845026 3.1119998
41.697598 0.51529783 -0.63348162 3.110255
41.89933 0.48493856 -0.63519174 3.1501429
42.101757 0.49984559 -0.63157815 3.1574996
42.299152 0.51322842 -0.63035578 3.1795392
42.498142 0.5336777 -0.62972981 3.2053211
42.6987 0.53868455 -0.63365382 3.2599165
42.896023 0.53690672 -0.64009124 3.3306129
43.105179 0.52828598 -0.64967316 3.4220836
43.288372 0.55107868 -0.65507376 3.4834874
43.44157 0.57196003 -0.65972644 3.5195558
45.162899 0.44760349 -0.67875993 4.6134663
45.246475 0.54283392 -0.67181939 4.6103535
45.510239 0.44431561 -0.67459053 5.1278186
45.624596 0.52534127 -0.67682362 5.1720004
45.951942 0.42764676 -0.70154381 5.3604999
46.054119 0.50910753 -0.70346236 5.4008889
49.116405 0.49479577 -0.68356752 7.9560008
50.153423 0.48641321 -0.73801374 9.2480001
50.761864 0.51191461 -0.77281713 9.5875998
30.560242 0.6388948 -0.62398314 11.256001
30.651808 0.7233144 -0.61947608 11.146002
30.902857 0.60348344 -0.60184503 11.096001
33.230976 0.60394835 -0.67080426 9.368
33.4678 0.74496341 -0.70387715 8.9773331
34.796162 0.63563347 -0.69997364 7.2539997
34.868477 0.69992447 -0.69312191 7.1620007
35.133305 0.68332833 -0.67676395 7.086
36.391102 0.75161326 -0.73283994 6.4220009
36.438885 0.69583851 -0.73158038 6.4065719
36.770191 0.74440163 -0.74542564 5.4546676
36.822681 0.66518855 -0.74399859 5.4506669
37.157486 0.71986675 -0.71825063 5.2925005
37.226917 0.62027353 -0.71658319 5.2886672
38.15279 0.72415078 -0.79464364 4.6083999
38.316086 0.70306993 -0.76083356 4.3543639
38.492947 0.68930286 -0.73794407 4.4667697
38.737984 0.75384247 -0.71072805 4.0370002
38.857605 0.65762419 -0.70630312 4.0216665
39.529884 0.77526385 -0.77371019 3.7389092
39.71096 0.75038809 -0.75561875 3.6468575
39.903282 0.70068449 -0.74080896 3.57675
40.108543 0.66139829 -0.71866101 3.4535999
40.308708 0.72384346 -0.67830211 3.1957335
40.499573 0.71408623 -0.6635778 3.1267171
40.69796 0.70914882 -0.64731663 3.0490835
40.896858 0.68895042 -0.63348264 2.9812503
41.095989 0.65203166 -0.62793136 2.9763076
41.255234 0.63680112 -0.62807584 2.9960003
41.516674 0.77582806 -0.64105064 3.0632002
41.686119 0.72427136 -0.63386703 3.0379233
41.912209 0.68598568 -0.62745416 3.0318792
42.09631 0.67522287 -0.62563503 3.041486
42.302856 0.67815584 -0.62736017 3.0677655
42.502361 0.6735605 -0.62540472 3.0968671
42.699814 0.68033642 -0.63292813 3.1485002
42.893822 0.68371946 -0.63754314 3.2055714
43.109283 0.63674438 -0.65674955 3.3321378
43.325146 0.65331513 -0.65917921 3.4153636
43.503456 0.70764446 -0.65426272 3.454684
43.674671 0.74118167 -0.65196681 3.5223167
43.860161 0.77362841 -0.65911621 3.5835004
45.287674 0.70415151 -0.66723216 4.5246
45.570053 0.6954459 -0.66025716 5.0292006
45.630074 0.72354025 -0.66285563 5.0637145
45.976376 0.62207294 -0.68671137 5.2299995
46.134926 0.67187023 -0.69675946 5.3555551
46.250881 0.73224658 -0.70481133 5.4710903
48.669704 0.77313328 -0.78232801 7.2980003
49.035442 0.70673221 -0.67083621 7.7986674
50.132446 0.69564754 -0.73032576 9.1613331
50.775383 0.67816359 -0.76841503 9.5479994
30.773346 0.85385036 -0.61336559 10.995999
30.835588 0.96946335 -0.60988641 10.908001
33.512428 0.94798279 -0.76462561 8.7024002
33.626064 0.90655488 -0.64414239 8.8946667
34.963188 0.89240122 -0.68164688 7.0002856
35.251835 0.90665245 -0.66278744 6.8882861
36.360168 0.92132485 -0.78056312 6.099
36.474506 0.91925824 -0.71884108 6.2700009
36.733734 0.8548463 -0.74391806 5.4308004
36.835339 0.97626662 -0.72798693 5.2820001
37.085247 0.88139808 -0.71741956 5.2693343
37.981628 0.95923173 -0.79719293 4.6036005
38.05806 0.85147059 -0.79599893 4.6052003
38.305347 0.91082561 -0.73695326 4.3531427
38.502651 0.91304135 -0.72384512 4.2838459
38.647167 0.85173041 -0.71243918 4.0358181
39.174896 0.93985343 -0.79856509 3.8540001
39.308651 0.87632114 -0.78875601 3.8077648
39.438084 0.81633693 -0.7797246 3.7660003
39.718483 0.97221488 -0.69690931 3.2091107
39.897213 0.90986043 -0.68460029 3.1572008
40.095821 0.84315515 -0.67551929 3.1282854
40.289078 0.91560453 -0.6512987 3.0054739
40.514366 0.96153033 -0.63248676 2.9412
40.703228 0.94756526 -0.63238925 2.9763641
40.899731 0.90268219 -0.62450486 2.9408212
41.089695 0.884341 -0.63482529 3.0192728
41.305096 0.86258429 -0.63483518 3.0224004
41.423058 0.81683946 -0.63748646 3.0400004
43.579147 0.8129077 -0.68327242 3.3626671
43.714668 0.89858025 -0.64832181 3.4117804
43.903282 0.92950416 -0.64336884 3.4989092
44.015759 0.98629218 -0.64424109 3.5170004
45.33765 0.90239942 -0.64949459 4.4379997
45.450035 0.99820328 -0.61443055 4.5099998
45.719883 0.90800053 -0.65714037 5.0402856
46.312378 0.88771856 -0.69691348 5.402
46.4286 0.95061982 -0.70578855 5.5240002
48.593662 0.99778867 -0.76778615 7.1380005
48.642132 0.88181257 -0.77597636 7.2286677
48.950909 0.91363555 -0.65837032 7.6433339
50.153023 0.90527427 -0.72541195 9.1185713
30.936928 1.1066527 -0.60461545 10.778001
33.559975 1.1065397 -0.78643179 8.5375996
33.701283 1.0930706 -0.63654834 8.7648001
34.984222 1.0636275 -0.67626357 6.9180002
35.010033 1.1373342 -0.67275852 6.8680005
35.29644 1.1038879 -0.65499169 6.7728572
36.37051 1.058629 -0.7912069 5.9379997
36.468609 1.0966977 -0.75553858 5.9652729
36.609451 1.1648613 -0.69760871 6.0393338
36.873787 1.0991173 -0.71856403 5.1895556
37.156429 1.1079137 -0.6996392 5.0940003
37.205662 1.1917958 -0.69084036 5.0100007
37.966202 1.1049271 -0.78847337 4.5336366
38.171631 1.1178012 -0.73145509 4.0871997
38.242695 1.0870912 -0.73483551 4.5192504
38.485653 1.1051888 -0.71045703 3.9947274
39.379585 1.1789744 -0.70695585 3.2245717
39.489178 1.095129 -0.7079522 3.2465136
39.622292 1.020694 -0.70606011 3.2533333
39.975742 1.1837775 -0.64277518 2.911
40.117729 1.1044947 -0.65354311 3.0424211
40.296211 1.03019 -0.67139834 3.2336843
40.489349 1.0076255 -0.66307116 3.1946669
40.615746 1.0001996 -0.65426874 3.1400001
40.963284 1.1941577 -0.62224352 2.4099998
41.109447 1.1746901 -0.62417269 2.4428277
41.310963 1.1612226 -0.62697965 2.4846251
41.502335 1.1221236 -0.62937337 2.5153134
41.703781 1.1069318 -0.6260649 2.5206828
41.900993 1.1106898 -0.62373447 2.5335896
42.098248 1.1134034 -0.62386441 2.5587125
42.30191 1.1341935 -0.62393337 2.5842953
42.483166 1.177985 -0.62151223 2.5907602
42.684673 1.1893414 -0.62778097 2.6397393
42.81955 1.1922863 -0.63443738 2.6886666
43.778187 1.0202934 -0.64687204 3.3604445
43.905186 1.0881932 -0.63880134 3.3786669
44.083279 1.1262659 -0.64092612 3.4703684
44.24176 1.1632519 -0.64282334 3.5462224
45.383648 1.0153282 -0.65828443 4.3860002
45.491673 1.1038345 -0.64940888 4.4329681
45.632687 1.1755579 -0.61605382 4.5593333
45.888203 1.0955324 -0.65869188 5.0928574
46.00766 1.182153 -0.66333342 5.1580005
46.36832 1.0437304 -0.68953979 5.3420005
46.463818 1.113259 -0.6969232 5.4483156
48.588535 1.0268104 -0.76630431 7.1220007
48.63163 1.1161934 -0.76645464 7.1282854
48.916225 1.1095793 -0.6496349 7.5422859
50.163498 1.0832717 -0.72113258 9.0790005
30.996059 1.217083 -0.6013363 10.696
31.003744 1.256933 -0.60073596 10.680002
33.703323 1.2855222 -0.71706545 8.4920006
33.853676 1.3761503 -0.62328017 8.5359993
34.999733 1.2417829 -0.67132723 6.8420005
35.04895 1.317325 -0.6661067 6.7706666
35.322601 1.3012712 -0.6487698 6.6789999
36.450439 1.2963198 -0.77342796 5.7660003
36.633396 1.3022065 -0.69013214 5.9595003
36.908638 1.3066367 -0.70607722 5.0640006
37.173519 1.3168967 -0.68864083 4.9808006
37.207081 1.2915311 -0.68627918 4.9620004
37.932911 1.2942098 -0.77952033 4.4596667
38.134754 1.3122205 -0.72487861 4.1646004
38.291374 1.2964182 -0.71784508 4.2777143
38.42675 1.2593802 -0.70570141 3.9484
39.175034 1.3692368 -0.71677655 3.2593846
39.28484 1.2687418 -0.71840227 3.2851996
39.714104 1.3484116 -0.65825307 2.9943204
39.893948 1.2848412 -0.6619392 3.1080005
40.061787 1.2337893 -0.67109799 3.2449236
40.357498 1.383327 -0.66232067 2.55775
40.508251 1.3482922 -0.65779352 2.5524902
40.700005 1.309809 -0.64743322 2.5155363
40.897758 1.2863997 -0.63305056 2.4617107
41.081768 1.2666683 -0.62890637 2.4597089
41.305286 1.2681963 -0.62528098 2.4516776
41.503021 1.29726 -0.62440902 2.4553335
41.686901 1.2605742 -0.64147633 2.5335715
41.899979 1.2457701 -0.62941498 2.4964571
42.106075 1.2434019 -0.62488854 2.4952683
42.300476 1.2527736 -0.62383533 2.5087998
42.510235 1.2579441 -0.62255269 2.5481203
42.703419 1.2608374 -0.62827957 2.6093094
42.90234 1.2924428 -0.63164431 2.6591976
43.075321 1.3500689 -0.63031822 2.6807034
43.231365 1.3796957 -0.63192397 2.73
43.999344 1.2085309 -0.62987554 3.4800005
44.120262 1.2716504 -0.63779974 3.3954816
44.282112 1.311179 -0.64060998 3.4812591
44.433937 1.3570118 -0.64215195 3.5824621
45.585335 1.2269747 -0.68621558 4.388
45.702007 1.3025361 -0.65256923 4.4960008
45.817699 1.3789822 -0.61786664 4.6113338
46.074116 1.2890538 -0.66284943 5.1706157
46.520515 1.2901274 -0.69027817 5.401
46.645782 1.3606038 -0.70109284 5.54
48.635597 1.2986113 -0.76039803 7.0660009
48.924755 1.2452393 -0.645787 7.5053344
33.722462 1.5029179 -0.76723272 8.272666
33.892025 1.5099872 -0.61890411 8.4626665
35.100578 1.4994272 -0.65865272 6.6642861
35.373226 1.5019023 -0.64091444 6.5654287
36.49432 1.4968429 -0.76131141 5.6476007
36.701397 1.5108662 -0.67650694 5.8130002
36.915157 1.511507 -0.69719422 4.9714551
37.157696 1.4965585 -0.68277621 4.9162226
37.900436 1.4964327 -0.77053607 4.3860002
38.126137 1.4952303 -0.71624225 4.2195659
38.34037 1.5031822 -0.69896668 3.8829234
38.735725 1.5305068 -0.79918271 3.8120003
39.077049 1.497972 -0.7208879 3.2735465
39.37495 1.5732017 -0.67273921 3.0184002
39.514202 1.5095793 -0.67322367 3.1095297
39.681282 1.4505312 -0.68198091 3.2936001
39.976757 1.5872601 -0.69002938 2.6674545
40.109219 1.5245363 -0.67945164 2.6183808
40.295887 1.4750109 -0.6637975 2.5505373
40.486576 1.4904456 -0.63584 2.4184213
40.707752 1.45934 -0.61849439 2.3599334
40.912113 1.5477399 -0.6347459 2.3195832
41.106304 1.5066746 -0.63155901 2.2658572
41.296337 1.5253549 -0.63204503 2.1895802
41.50042 1.526727 -0.62361175 2.1120405
41.698853 1.4976522 -0.62489361 2.1381145
41.900738 1.505722 -0.62173861 2.1453199
42.099274 1.5340017 -0.61855131 2.1526299
42.292084 1.568976 -0.61795592 2.1706445
42.431606 1.5878198 -0.62025458 2.188375
43.140385 1.4298671 -0.6316393 2.6765215
43.296215 1.5111074 -0.62637621 2.6725516
43.441998 1.5628548 -0.62829322 2.7040002
44.32177 1.4817359 -0.63383764 3.3937781
44.49538 1.5065073 -0.64278668 3.5163324
44.612297 1.5725328 -0.63683331 3.5736001
45.786457 1.4149095 -0.69285727 4.4513335
45.87701 1.5031652 -0.65415001 4.5458522
46.14555 1.4929084 -0.65801376 5.1510911
46.209763 1.5923264 -0.65862143 5.1719999
46.571247 1.4289143 -0.68464208 5.3530006
46.695599 1.4925088 -0.69557917 5.488667
46.819229 1.5561335 -0.70684326 5.6270003
48.617683 1.4118805 -0.75517178 7.0099998
33.75769 1.6739101 -0.76177549 8.1966667
33.911144 1.7083055 -0.66605663 8.2607498
34.009014 1.7670274 -0.60842544 8.2839994
35.167492 1.699374 -0.64992207 6.5420003
35.392807 1.6281688 -0.63700241 6.5080004
35.438602 1.720127 -0.63188249 6.4373336
36.505898 1.6987439 -0.75300288 5.5642223
36.728638 1.6945801 -0.66758752 5.7185001
36.931812 1.7127674 -0.68795186 4.8776007
37.150826 1.6988895 -0.67566067 4.8406672
37.866367 1.7079211 -0.76227939 4.3182855
38.11134 1.6990983 -0.70492804 4.1228576
38.301758 1.702692 -0.69074196 3.8134289
38.656345 1.7071226 -0.79569083 3.7828577
38.923035 1.7023498 -0.72427696 3.2758048
39.082756 1.6833061 -0.70705378 3.1928003
39.308525 1.7138969 -0.67927849 3.1275437
39.457047 1.6561824 -0.69052565 3.3698466
39.749218 1.7538384 -0.69480944 2.6625926
39.891438 1.6814785 -0.68999326 2.6458154
40.089249 1.7005398 -0.65518808 2.473721
40.27911 1.6559851 -0.63668567 2.3683999
40.505573 1.7372912 -0.64415103 2.3076146
40.71328 1.7034084 -0.64439684 2.2174289
40.897648 1.7053751 -0.63447601 2.0995831
41.101021 1.6804903 -0.62791312 2.0374746
41.29953 1.7073052 -0.61726165 1.9253937
41.50172 1.7407798 -0.62796444 1.9695837
41.70306 1.7444925 -0.63384163 1.9510609
41.898121 1.7378404 -0.63452417 1.9646338
42.093395 1.7421066 -0.63575572 1.9898639
42.296124 1.6768415 -0.63122368 2.1082966
42.507648 1.6645885 -0.61867589 2.1678145
42.700108 1.7213138 -0.62060922 2.1937361
42.86977 1.7631764 -0.62181288 2.2177498
43.017208 1.7966006 -0.62600672 2.2740004
43.353806 1.6448731 -0.61721808 2.704706
43.496315 1.6823735 -0.62171614 2.6654994
43.665276 1.7481856 -0.62773854 2.7148736
44.382034 1.6264671 -0.62689161 3.5313339
44.49234 1.6977208 -0.6343255 3.3693588
44.679123 1.7015901 -0.63666683 3.5967572
45.96627 1.6497654 -0.66558748 4.5370002
46.030243 1.745023 -0.64440262 4.5868573
46.285786 1.6973996 -0.66042668 5.2053337
46.750725 1.6777149 -0.68822616 5.4247999
46.89201 1.7164701 -0.70528322 5.6278667
33.880016 1.8903898 -0.74927968 8.0286665
34.050545 1.8804275 -0.60444325 8.217001
35.182068 1.8560981 -0.64612436 6.4860001
35.234463 1.9161149 -0.64115185 6.4200006
35.492607 1.9016618 -0.62462568 6.3355002
36.536774 1.9017452 -0.74315107 5.4684005
36.761658 1.8950377 -0.65804082 5.6176004
36.940403 1.9050884 -0.68047005 4.8012729
37.165611 1.9056097 -0.66672885 4.7504444
37.836735 1.9065305 -0.75527936 4.2613335
38.076775 1.8961236 -0.69773674 4.0627694
38.269005 1.8960149 -0.68328291 3.7512002
38.581753 1.9225625 -0.78987736 3.7403333
38.736286 1.9208804 -0.74348438 3.4008572
38.831543 1.8770583 -0.72190762 3.2499998
39.116901 1.9128982 -0.67895466 3.0366669
39.253799 1.8943402 -0.69199258 3.3686001
39.543472 1.952754 -0.70852208 2.7170341
39.686764 1.8816546 -0.69635683 2.6547115
39.888004 1.8920892 -0.65472269 2.4503081
40.145988 1.9515371 -0.65085107 2.2318623
40.312714 1.8973207 -0.6605795 2.3050466
40.504677 1.9038671 -0.65040714 2.1276495
40.685818 1.8782171 -0.63144988 1.9542789
40.924255 1.9288149 -0.63491166 1.8705306
41.094677 1.9097567 -0.63497853 1.9051021
41.295654 1.8594686 -0.63145107 1.9058641
41.495724 1.8294598 -0.62559515 1.8470231
41.702518 1.878096 -0.62627453 1.8451518
41.901413 1.8845903 -0.63095957 1.8620702
42.111404 1.8577996 -0.63319111 1.8942137
42.306622 1.8608216 -0.63285536 1.9255251
42.498604 1.9246784 -0.63108099 1.9343646
42.677433 1.9575462 -0.6257953 1.9653046
42.925098 1.848063 -0.62164712 2.2197726
43.096737 1.9142574 -0.62210536 2.2293589
43.22377 1.981218 -0.62915361 2.2305887
43.547554 1.8563727 -0.61474013 2.7245884
43.718441 1.8732917 -0.62304246 2.6954377
43.864677 1.9269532 -0.63317019 2.7476335
44.544033 1.8831704 -0.62843978 3.4716191
44.71384 1.8808484 -0.64431441 3.439059
44.844734 1.9458163 -0.63474929 3.6134002
46.102291 1.8928285 -0.65691453 4.5701489
46.372974 1.8294914 -0.6623674 5.2428002
46.436325 1.932729 -0.66387349 5.2709999
46.901535 1.8741268 -0.69447875 5.5179996
47.056126 1.9233848 -0.71285784 5.7335558
33.977081 2.0852315 -0.73920536 7.8940005
34.004101 2.1556625 -0.73620802 7.854001
35.288738 2.1004221 -0.63414109 6.3235006
35.561775 2.0998974 -0.61617792 6.2190003
35.902798 2.1713164 -0.79554081 6.1480002
36.558998 2.1058581 -0.73473871 5.3867998
36.789642 2.0638225 -0.6503529 5.5366669
36.910168 2.1132979 -0.65981209 5.0391431
37.13876 2.1084933 -0.66099465 4.6764002
37.792515 2.1882377 -0.74752903 4.198
37.871098 2.1123567 -0.73101473 4.0674119
38.074814 2.0899241 -0.68871927 4.0484009
38.231819 2.1039178 -0.67685115 3.696934
38.539131 2.1018834 -0.78354728 3.6980002
38.752716 2.1005394 -0.71756971 3.2151351
38.973911 2.1500671 -0.68026823 3.0173335
39.087269 2.0890956 -0.68816084 3.2547998
39.366055 2.1585789 -0.71586174 2.7868235
39.479248 2.0934279 -0.70279849 2.666357
39.702892 2.0855463 -0.66328704 2.4752002
39.948887 2.1412361 -0.6588906 2.2246668
40.107441 2.1046956 -0.66957355 2.321667
40.290611 2.0903893 -0.6521132 2.0452383
40.517879 2.100734 -0.64430606 1.8419359
40.700546 2.1118596 -0.64702511 1.9263768
40.857956 2.0341818 -0.64208621 1.9372364
41.157951 2.1844666 -0.64061803 1.8652308
41.301105 2.1184907 -0.63923508 1.8602287
41.500019 2.0431705 -0.63888782 1.8595759
41.62323 2.0103288 -0.63817471 1.8574287
42.582653 2.0121179 -0.6288839 1.9302857
42.716026 2.0506756 -0.63011765 1.9445298
42.895226 2.1144667 -0.63053083 1.9545184
43.094997 2.1206226 -0.62218392 2.1401613
43.302551 2.0924368 -0.62117177 2.2297256
43.414619 2.1810825 -0.63071871 2.1726668
43.744209 2.09181 -0.61419332 2.7517273
43.940495 2.0704014 -0.63385034 2.7329133
44.039234 2.1432405 -0.63190007 2.7568889
44.577328 2.0322797 -0.61659056 3.5053337
44.687359 2.1103172 -0.63684708 3.3209698
44.928654 2.0908494 -0.63575512 3.6392729
45.012825 2.1803665 -0.63615042 3.6488004
46.162781 2.0949225 -0.65151125 4.5521536
46.201389 2.1736369 -0.69360077 4.4859996
46.471386 2.1024482 -0.66064125 5.2561817
46.953293 2.0370727 -0.69150525 5.5020003
47.108227 2.0347862 -0.71354836 5.7526665
33.957817 2.3284445 -0.73747814 7.8700004
34.057884 2.2870853 -0.7304644 7.7779999
35.348587 2.3028982 -0.62669301 6.2224445
35.588818 2.2832205 -0.61138892 6.1520004
35.614399 2.3028238 -0.60917872 6.1228571
35.862637 2.30405 -0.79670483 6.1568003
36.55452 2.3073537 -0.72988755 5.338728
36.790314 2.3757432 -0.64156455 5.448
36.900204 2.3006315 -0.65375727 5.0247383
37.127476 2.2953715 -0.65607458 4.6209092
37.32658 2.3174481 -0.74949712 4.6540003
37.761677 2.2999158 -0.74702924 4.1914287
37.968082 2.297543 -0.68708169 3.7116001
38.124184 2.3179116 -0.6777271 4.0045457
38.208164 2.2611096 -0.67227572 3.659143
38.51326 2.3038874 -0.77434194 3.6400006
38.713261 2.3005772 -0.70983219 3.1640003
38.925377 2.2966483 -0.67744154 2.9950004
39.032482 2.2995005 -0.69134295 3.3831112
39.299217 2.3063107 -0.7174089 2.7327385
39.505596 2.2978826 -0.67856717 2.5342288
39.725796 2.3095396 -0.65943778 2.2430713
39.912678 2.3110876 -0.67534143 2.3462045
40.085644 2.2857387 -0.65941179 2.0448632
40.329887 2.3349745 -0.65737706 1.873108
40.487122 2.2774396 -0.65478086 1.9629617
40.643379 2.2371924 -0.65186924 2.063143
40.917942 2.3341742 -0.64324814 1.8753334
41.067921 2.2334449 -0.64186007 1.8699132
42.927689 2.2677033 -0.6234864 1.9841274
43.109406 2.2898207 -0.62791711 1.9669603
43.274769 2.3233104 -0.62310451 2.1120529
43.498974 2.2981327 -0.62095034 2.2315214
43.618038 2.3850288 -0.63086349 2.1824446
43.88876 2.3025756 -0.61459273 2.7765005
44.133587 2.2938616 -0.63471347 2.7582982
44.218632 2.3668978 -0.62555504 2.8380001
44.729103 2.2847376 -0.62377483 3.42448
44.838203 2.333719 -0.64660788 3.1788573
45.074131 2.2965651 -0.63974315 3.6902862
46.160297 2.2856069 -0.64274412 4.5762863
46.219044 2.302135 -0.65277696 4.5266666
46.505791 2.2427471 -0.65896147 5.2532001
51.288574 2.3070953 -0.76258796 9.6906672
33.977345 2.5095391 -0.73390156 7.8235998
34.010429 2.479532 -0.73175716 7.7953339
35.188217 2.5751615 -0.6357317 6.3339996
35.279358 2.4788895 -0.62980223 6.2590003
35.50951 2.4984288 -0.61452472 6.189455
35.832832 2.4518731 -0.79667914 6.1550002
36.383785 2.5575635 -0.74282962 5.4520006
36.470749 2.4746647 -0.73508275 5.3830004
36.760471 2.5147891 -0.64077413 5.4436007
36.952274 2.4929166 -0.65971619 4.6736927
37.155281 2.4980798 -0.65068644 4.5868893
37.372749 2.519758 -0.79455703 4.649272
37.715141 2.5053782 -0.74560905 4.1771998
37.943367 2.4978015 -0.6824891 3.6739998
38.110558 2.5012743 -0.67221731 3.9064143
38.473854 2.5024273 -0.76938778 3.6072941
38.669464 2.4957726 -0.70469677 3.1285264
38.911888 2.4994357 -0.68043995 3.1509743
39.142643 2.5199664 -0.73153043 2.7998636
39.274399 2.4904754 -0.70358831 2.6381054
39.441654 2.4829848 -0.66467816 2.4571822
39.7229 2.5180652 -0.67154181 2.3212395
39.895603 2.4981518 -0.67187917 2.1149621
40.13203 2.5270162 -0.66885084 1.896
40.276676 2.4785855 -0.6638248 1.9984616
40.410336 2.4013762 -0.64779902 2.1739998
40.706028 2.5132763 -0.64636683 1.8879465
40.81942 2.4275019 -0.64098942 1.8670001
43.114395 2.4832313 -0.62372714 2.005739
43.31329 2.4901505 -0.62295669 1.995564
43.471302 2.5179758 -0.62298983 2.1687346
43.692863 2.5044422 -0.62615412 2.2603769
43.966122 2.4699223 -0.61634409 2.750267
44.066422 2.5243559 -0.6188637 2.8199999
44.261852 2.5037572 -0.63367385 2.7776248
44.771252 2.4768155 -0.6133998 3.5253336
44.8937 2.516562 -0.63903546 3.2476795
45.164837 2.4559817 -0.64328539 3.7323811
45.217449 2.5510223 -0.64356852 3.741143
45.981682 2.4823399 -0.60220706 4.6850004
46.056061 2.5339179 -0.64827567 4.3585005
46.235394 2.4240899 -0.6865015 4.4353333
48.67231 2.546478 -0.73010868 6.7680006
48.917233 2.5085499 -0.61439711 7.1914291
50.126556 2.5388622 -0.6899913 8.7639999
51.312031 2.5081637 -0.76115561 9.6893339
51.803429 2.4342296 -0.79524493 10.296
33.980865 2.7166815 -0.73148203 7.7940006
34.013741 2.7014191 -0.72915399 7.7632003
35.178574 2.6845288 -0.63534141 6.3285003
35.20845 2.7863965 -0.63203686 6.2859998
35.431717 2.704318 -0.61806184 6.2346668
35.771114 2.7971697 -0.79708272 6.1580009
36.382084 2.7109118 -0.74008363 5.4267278
36.666893 2.6987793 -0.64496815 5.4965458
36.87701 2.6866872 -0.66729486 4.6601534
37.073349 2.6917639 -0.65548587 4.6268897
37.319046 2.6423788 -0.798186 4.6732001
37.55225 2.7376432 -0.76144344 4.2828884
37.64098 2.6440437 -0.75147587 4.2153335
37.906796 2.7156014 -0.68275714 3.85936
38.0802 2.6855509 -0.67113191 3.7884803
38.365112 2.7371783 -0.77661848 3.6440003
38.501335 2.7059875 -0.74925417 3.4388752
38.661613 2.7001126 -0.69147068 3.0465131
38.870926 2.6876652 -0.67953324 3.1825812
39.071651 2.6959462 -0.73221815 2.7846971
39.298523 2.698786 -0.67639482 2.5043571
39.557987 2.7157626 -0.66703761 2.1277692
39.710403 2.7021372 -0.68337637 2.3215046
39.85741 2.6788919 -0.65851998 1.8930225
40.095837 2.7037582 -0.67240483 1.9783721
40.213947 2.6298637 -0.65352547 2.2010002
40.524082 2.7075408 -0.65147161 1.9086841
40.614986 2.6058226 -0.64807689 1.895
43.177822 2.6436784 -0.62060463 2.0047693
43.308647 2.6867199 -0.62273961 2.0163529
43.491253 2.7063248 -0.62457955 2.0458055
43.735218 2.6915464 -0.62599999 2.3031907
43.857922 2.7115326 -0.6315161 2.2515512
44.077682 2.69994 -0.61407512 2.8054543
44.351696 2.6932437 -0.63477027 2.7850513
44.414406 2.7705579 -0.62613302 2.8732002
44.901405 2.67975 -0.62546921 3.4243078
45.01889 2.7454422 -0.64587069 3.1855998
45.268276 2.6953971 -0.64466798 3.7608755
45.996323 2.6035244 -0.60011119 4.6740007
46.082401 2.6987705 -0.65210503 4.2774997
46.289497 2.7786784 -0.66548586 4.5289998
46.503578 2.7835791 -0.64423466 5.1459999
47.183338 2.7409849 -0.69203192 5.5726666
47.301563 2.7331743 -0.71076912 5.7813334
48.661812 2.7034926 -0.72640276 6.7313333
48.87756 2.7037406 -0.60865521 7.1235003
50.082462 2.6958592 -0.68537933 8.7040014
51.359943 2.7035217 -0.76171541 9.7172003
51.426514 2.7193151 -0.76573819 9.7820015
33.980892 2.8102031 -0.7306025 7.7840004
34.060127 2.9128487 -0.72370642 7.6953335
35.178024 2.8938563 -0.6334672 6.3051109
35.442879 2.9018006 -0.61527699 6.1995564
35.775688 2.9084849 -0.79497522 6.1391439
35.801949 2.9302254 -0.79181582 6.1100001
36.360939 2.9050529 -0.73921347 5.4195008
36.411964 2.9239132 -0.73327696 5.3660002
36.655476 2.9000483 -0.6422053 5.4724007
36.864441 2.8968034 -0.66517669 4.6398468
37.057549 2.8964019 -0.65355301 4.6084003
37.267899 2.9333029 -0.79781657 4.6693335
37.505306 2.9023552 -0.76397353 4.2997141
37.775169 2.9465642 -0.69364673 3.74225
37.899769 2.8926606 -0.68320256 3.971931
38.018604 2.8784513 -0.67654204 3.6740003
38.324551 2.8946486 -0.7774502 3.6472504
38.523834 2.8986607 -0.71151304 3.1583164
38.765785 2.9009149 -0.67172289 2.9471002
38.910107 2.9046285 -0.70132601 3.2320871
39.052261 2.8980436 -0.72149557 2.7240653
39.215359 2.8954399 -0.68129492 2.5230527
39.518803 2.9044924 -0.67036718 2.3472965
39.689453 2.897871 -0.68078828 2.1257944
39.961342 2.9173386 -0.67997473 1.9321067
40.039413 2.8706162 -0.66729939 2.0807717
40.373192 2.9389734 -0.65428036 1.9212999
40.430897 2.8471112 -0.65220726 1.9125715
43.300652 2.9010651 -0.62105572 2.0216773
43.528603 2.8860326 -0.6229828 2.0577147
43.655071 2.9154298 -0.63189369 2.0645673
43.908306 2.8908038 -0.62960023 2.3366761
44.104939 2.9147153 -0.62097675 2.6406901
44.388348 2.8359997 -0.63481987 2.8127692
44.436069 2.9156058 -0.63279969 2.7930589
44.907375 2.8964899 -0.61389965 3.5590591
45.064606 2.8998525 -0.64496344 3.18379
45.313953 2.8973041 -0.64282054 3.7600002
46.08773 2.8016722 -0.60399491 4.73
46.260498 2.8989627 -0.66848999 4.3682857
46.534664 2.8968725 -0.64508307 5.162364
47.179348 2.8959966 -0.68842548 5.547143
47.311649 2.891257 -0.70866746 5.7706676
48.661671 2.90398 -0.72320932 6.7025003
48.838745 2.9070842 -0.60329831 7.0605006
50.030148 2.8973072 -0.68006259 8.6351442
51.385719 2.8562398 -0.76164448 9.7300014
51.427895 2.9288869 -0.76360172 9.7670002
34.084652 3.1021826 -0.72037685 7.6565003
35.181225 3.0746422 -0.63184768 6.2866669
35.243443 3.1331379 -0.6266312 6.2206669
35.443958 3.0967495 -0.61360478 6.1808891
35.795677 3.0924594 -0.79047948 6.0993333
35.817181 3.1049843 -0.78801441 6.0766673
36.371189 3.127475 -0.73515683 5.3854289
36.426254 3.0736282 -0.72966921 5.335
36.659256 3.1021261 -0.63873464 5.440546
36.864635 3.0988703 -0.66253936 4.6170006
37.039192 3.101805 -0.65270627 4.6016927
37.263584 3.1036682 -0.79502326 4.6503077
37.507107 3.1044109 -0.75950342 4.2696924
37.769642 3.1012967 -0.6915133 3.7276249
37.931034 3.1106501 -0.67716032 3.9771664
38.008919 3.0554628 -0.67377889 3.6543999
38.327263 3.0981288 -0.770383 3.6067505
38.511047 3.1022987 -0.70683932 3.1306493
38.710831 3.1016159 -0.67601246 2.9855244
38.891357 3.1081998 -0.7059803 3.1850717
39.064281 3.0959673 -0.70644444 2.6461787
39.205399 3.1064112 -0.67342681 2.4843638
39.509548 3.1015074 -0.68957388 2.355093
39.665657 3.0921807 -0.66303724 1.9899671
39.923176 3.1037014 -0.67664891 1.9886029
40.009003 3.0290482 -0.6553489 2.2131429
40.30703 3.0977845 -0.65337646 1.9193332
43.361958 3.0994554 -0.62082189 2.0292001
43.567265 3.0889904 -0.63568604 2.0920002
43.688641 3.0974011 -0.62769806 2.0858476
43.937786 3.0991778 -0.62896806 2.3681962
44.104389 3.1016173 -0.62603951 2.4687753
44.482487 3.1014519 -0.63326931 2.799705
44.936672 3.0965178 -0.61247528 3.5587504
45.097805 3.099776 -0.64167279 3.1675558
45.355953 3.0981944 -0.64337099 3.7756133
45.407455 3.1821361 -0.64117444 3.7600002
46.250916 3.1025081 -0.66697752 4.2943072
46.546875 3.0932336 -0.64322048 5.1547275
47.180893 3.0950131 -0.68517745 5.5270004
47.343063 3.1054473 -0.70908141 5.7892728
48.571098 3.1805658 -0.7119655 6.5820007
48.639286 3.0814528 -0.71892661 6.6597147
48.819653 3.0443816 -0.60040808 7.0280013
49.965221 3.1584129 -0.67392129 8.555335
50.029739 3.0315571 -0.67885029 8.6260004
51.476574 3.1056607 -0.76512653 9.8053341
32.744308 3.3663723 -0.79870415 9.118
32.807175 3.3999062 -0.79393393 9.0540009
34.087154 3.3034177 -0.71888399 7.6437144
35.268478 3.3031096 -0.62372726 6.1876001
35.520729 3.3167562 -0.60631812 6.0915003
35.799343 3.2058249 -0.78886563 6.086
35.871655 3.3059809 -0.78014153 6.0070004
36.382786 3.24403 -0.73263115 5.3646674
36.442554 3.3320563 -0.72522765 5.2997146
36.67762 3.3017039 -0.63462263 5.4016008
36.865402 3.2995086 -0.66062999 4.6026158
37.047543 3.302161 -0.64972281 4.5776668
37.268715 3.3052292 -0.79120493 4.6253338
37.520752 3.2974563 -0.75458539 4.2379999
37.76207 3.3016455 -0.68992913 3.7182665
37.929268 3.3014517 -0.67501605 3.9224
38.311836 3.2960188 -0.76846498 3.5966251
38.493286 3.3009684 -0.70696032 3.1336217
38.738808 3.301717 -0.67547351 3.116334
38.954773 3.3082108 -0.7252574 2.7749524
39.083904 3.2899773 -0.7008518 2.616045
39.344524 3.3097925 -0.67106456 2.2040002
39.500065 3.2965724 -0.68845826 2.342813
39.653702 3.3038187 -0.65805298 1.9342588
39.89275 3.3000052 -0.67281961 1.9911931
40.248608 3.2954957 -0.65170288 1.914968
43.38958 3.2983301 -0.61833203 2.02472
43.486523 3.2847006 -0.62659162 2.0597143
43.67371 3.2955053 -0.62413841 2.1345351
43.884438 3.3071377 -0.6322493 2.1664529
44.097095 3.3013744 -0.62172633 2.4320655
44.203453 3.2957554 -0.61139584 2.8180001
44.502277 3.3006599 -0.62977213 2.7808123
44.947029 3.2985446 -0.61036909 3.5510592
45.121601 3.3005114 -0.63899982 3.155158
45.385227 3.2761066 -0.6426807 3.7782221
45.411911 3.3351808 -0.64811635 3.8225458
46.236671 3.2979457 -0.66147017 4.2543077
46.537479 3.298362 -0.6401189 5.1326671
47.177074 3.3225949 -0.68200523 5.5073333
47.326389 3.2872722 -0.70413685 5.7453847
48.380966 3.3631287 -0.69398063 6.3780003
48.464844 3.2861362 -0.70185333 6.4674292
49.758617 3.3798966 -0.65985233 8.3419991
49.844135 3.2758825 -0.6656884 8.4300003
51.537434 3.2907748 -0.76765239 9.8588009
51.667061 3.3910592 -0.77531046 9.986001
32.783825 3.5042427 -0.79519135 9.0753336
32.837376 3.5149963 -0.79121405 9.0213327
34.08007 3.5024738 -0.71841407 7.6459994
35.326797 3.5080984 -0.61835217 6.1255555
35.55003 3.5055377 -0.60318881 6.0576
35.945183 3.4951355 -0.7708534 5.9252005
36.487125 3.5007637 -0.71915609 5.249455
36.7216 3.5009878 -0.62886161 5.3443642
36.881985 3.4991343 -0.65769255 4.5809999
37.050034 3.5006917 -0.64817894 4.5684619
37.288246 3.4980621 -0.78646249 4.5950007
37.518764 3.4956272 -0.75300854 4.2308574
37.750687 3.5002027 -0.69027179 3.7238753
37.914021 3.5007977 -0.67457145 3.9323449
38.314713 3.5005145 -0.76496112 3.5789413
38.486809 3.5001493 -0.70488548 3.1231887
38.72691 3.4997184 -0.67530155 3.1317835
38.950687 3.5052433 -0.72770679 2.7639287
39.088539 3.488214 -0.69491476 2.5896003
39.36116 3.4738579 -0.67739129 2.1410911
39.510105 3.5005133 -0.68076551 2.3074808
39.662392 3.506398 -0.65625381 1.8901705
39.885204 3.4992011 -0.66764063 1.9694791
40.193218 3.4958699 -0.65503401 1.9300001
40.22747 3.4972293 -0.64607114 1.8956777
43.380142 3.5021849 -0.61236119 2.0032308
43.537525 3.502146 -0.62341499 2.0511432
43.657791 3.4923613 -0.61744428 2.1175151
43.8745 3.4994984 -0.62704509 2.1023574
44.098656 3.4988179 -0.61675984 2.4281213
44.514584 3.5015502 -0.62788129 2.7736826
44.957607 3.4994614 -0.61012 3.5552504
45.131165 3.5010347 -0.63617021 3.1415558
45.387383 3.4110553 -0.64191949 3.7779999
45.426258 3.5090625 -0.64723361 3.8214407
46.228844 3.4972947 -0.65777844 4.2294288
46.481968 3.4950898 -0.63355422 5.0724001
47.174976 3.5000684 -0.68041962 5.499455
47.348297 3.4983749 -0.70694476 5.7872
48.333332 3.5089529 -0.68880552 6.323112
49.679623 3.5123534 -0.65445834 8.2620001
51.569214 3.5631785 -0.76824087 9.8860006
51.626965 3.5018106 -0.77220643 9.9443998
32.783638 3.6953607 -0.79451382 9.0743999
32.821861 3.7153513 -0.79164165 9.0360003
34.06609 3.7018795 -0.71873325 7.6602859
35.350994 3.6989191 -0.6160177 6.1042223
35.57589 3.6530917 -0.60071844 6.0319996
35.994202 3.6492119 -0.76482457 5.8736
36.010956 3.75102 -0.76274383 5.8576002
36.513382 3.7003171 -0.71551335 5.223455
36.762646 3.7055571 -0.62397313 5.2972732
36.883064 3.6980093 -0.65728307 4.5838466
37.089123 3.6979082 -0.64329344 4.5310001
37.303997 3.6961198 -0.78325653 4.5767694
37.53371 3.6997035 -0.75008774 4.2161431
37.758923 3.6998408 -0.68900687 3.7204003
37.916756 3.6979852 -0.6739465 3.9121389
38.322117 3.7032826 -0.76250219 3.5685003
38.480427 3.6997521 -0.70698565 3.1405945
38.712975 3.6989374 -0.67600071 3.1308649
38.950943 3.6921177 -0.72652262 2.7619252
