# .PCD v0.7 - Point Cloud Data file format
VERSION 0.7
FIELDS x y z intensity
SIZE 4 4 4 4
TYPE F F F F
COUNT 1 1 1 1
WIDTH 1151
HEIGHT 1
VIEWPOINT 0 0 0 1 0 0 0
POINTS 1151
DATA ascii
44.976952 5.2751122 -0.83784926 3.4880004
44.957413 5.2788296 -0.83576572 3.4720001
44.955875 5.2907782 -0.83632684 3.4760003
44.950485 5.3014822 -0.83636159 3.4760003
44.948586 5.3139663 -0.83692658 3.4800003
44.939587 5.3228312 -0.83643413 3.4760003
44.916214 5.3248777 -0.83382726 3.4560001
44.9291 5.3430414 -0.83650684 3.4760001
44.919739 5.3523307 -0.83601916 3.4720004
44.917633 5.364769 -0.83658934 3.4760003
44.922184 5.3814878 -0.83822179 3.4880002
44.906013 5.3864145 -0.83667624 3.4760003
44.889561 5.3917708 -0.83513349 3.4640002
44.901474 5.4112701 -0.83782434 3.4840004
44.878616 5.4116488 -0.8352195 3.4640002
44.883186 5.4278822 -0.83685553 3.4760003
44.866955 5.4324932 -0.83531404 3.4640002
44.85762 5.4409251 -0.83483291 3.4600003
44.872349 5.4631052 -0.83806217 3.4840004
44.856056 5.4675698 -0.83652329 3.4720001
44.843193 5.4739351 -0.83551508 3.4640002
44.833744 5.4822388 -0.83503783 3.4600003
44.837925 5.4985666 -0.83668208 3.4720004
44.828403 5.5068274 -0.83620673 3.4680002
44.829056 5.5211663 -0.83732319 3.4760003
44.805904 5.5211587 -0.83472842 3.4559999
44.799706 5.5313373 -0.83478606 3.4559999
44.803612 5.5477238 -0.83643627 3.4679999
44.804062 5.5620708 -0.83755732 3.4760001
44.794361 5.5701427 -0.83708775 3.4720004
44.774574 5.5718312 -0.83502686 3.4560001
44.775543 5.5851378 -0.8361448 3.4640002
44.775482 5.5999837 -0.83727348 3.4720001
44.772346 5.6122007 -0.83786929 3.4760003
44.758858 5.6184473 -0.83687663 3.4679999
44.735733 5.6176109 -0.83428812 3.4480004
44.735825 5.6319056 -0.83541793 3.4560001
44.729244 5.6418381 -0.83548659 3.4559999
44.732513 5.6583619 -0.83715022 3.4680004
44.712688 5.6594205 -0.83509552 3.4520001
44.722412 5.6804075 -0.83782452 3.4720004
44.705845 5.6835785 -0.83630282 3.4600003
44.699085 5.6934042 -0.83637649 3.4600003
44.698803 5.7077322 -0.83751464 3.4680002
44.678967 5.7084455 -0.83546317 3.4520001
44.685081 5.727314 -0.83766735 3.4679999
44.668816 5.7296991 -0.83614528 3.4560001
44.678017 5.750926 -0.83888423 3.4760003
44.680672 5.7676063 -0.84056067 3.4880002
44.660782 5.768034 -0.83851284 3.4720004
44.656929 5.7800436 -0.83912706 3.4760003
44.637062 5.7802982 -0.83708012 3.4600005
44.645885 5.8016934 -0.83982641 3.4800005
44.63554 5.8089366 -0.83937871 3.4760003
44.599472 5.7975421 -0.834674 3.4400003
44.610909 5.8218431 -0.83796155 3.4640005
44.60088 5.8284583 -0.83751184 3.4600003
44.58733 5.8330841 -0.83653408 3.4520001
44.58041 5.8420286 -0.83661878 3.4520001
44.588726 5.8636079 -0.83937532 3.4720001
44.562634 5.8583326 -0.83626664 3.4480004
44.552158 5.8651991 -0.83582515 3.4440005
44.547863 5.8769612 -0.83645159 3.4480004
44.546612 5.8911986 -0.83761287 3.4560001
44.539127 5.9004698 -0.837708 3.4560001
44.513165 5.8946981 -0.83460057 3.4320002
44.505669 5.903851 -0.83469689 3.4320004
44.498142 5.9129801 -0.83479416 3.4320002
44.484486 5.9170117 -0.83382392 3.4240005
44.495144 5.9413385 -0.83712912 3.4480007
44.478394 5.9427624 -0.83562636 3.4360001
44.464691 5.9466619 -0.83465832 3.428
44.454002 5.9530697 -0.83422554 3.4240005
44.449303 5.9646034 -0.83486319 3.4280005
44.438568 5.9709377 -0.83443201 3.4240005
44.427822 5.9772239 -0.83400154 3.4200001
44.414478 5.9804001 -0.8330313 3.4120004
44.409649 5.9918385 -0.83367276 3.4160004
44.407337 6.0063481 -0.83485633 3.4240005
44.396503 6.0124836 -0.83442914 3.4199998
44.394474 6.0265503 -0.83560985 3.4280005
44.374798 6.0246096 -0.83357686 3.4120004
44.361008 6.0279212 -0.83261573 3.4040003
44.358871 6.0419235 -0.83379948 3.4120002
44.354164 6.0528078 -0.83444273 3.4160001
44.343224 6.0586972 -0.83402014 3.4120004
44.337639 6.0704045 -0.83467686 3.4160001
44.329529 6.0789461 -0.83479255 3.4160004
44.330391 6.0952539 -0.83651364 3.428
44.310776 6.0927682 -0.8344838 3.4120004
44.311127 6.1094947 -0.83621317 3.4240005
44.300045 6.1151724 -0.83579552 3.4199998
44.280476 6.1124649 -0.83376646 3.4040003
44.286304 6.1347528 -0.83657461 3.4240005
44.275166 6.1403141 -0.83615923 3.4199998
44.269611 6.1514449 -0.83682013 3.4240005
44.252857 6.1512918 -0.83533061 3.4120002
44.250023 6.1651926 -0.83653128 3.4199998
44.255421 6.1876163 -0.83934808 3.4400003
44.235874 6.1844797 -0.83732224 3.4240005
44.224621 6.1898079 -0.8369115 3.4199998
44.21336 6.1950855 -0.83650136 3.4160004
44.199364 6.1974406 -0.83555311 3.4080002
44.204399 6.2199249 -0.83837783 3.4280002
44.19577 6.2279992 -0.83850938 3.4280002
44.176323 6.2244282 -0.83648479 3.4120004
44.175739 6.2411447 -0.8382358 3.4240003
44.161682 6.2432728 -0.8372907 3.4160004
44.150303 6.2482672 -0.83688569 3.4120004
44.157516 6.2737999 -0.84026051 3.4360001
44.140759 6.2728596 -0.83877766 3.4240003
44.124039 6.2718325 -0.8372947 3.4120002
44.115227 6.2796268 -0.8374328 3.4120004
44.095928 6.2754793 -0.83540958 3.3960004
44.094925 6.2921348 -0.83717096 3.4080005
44.099014 6.3148074 -0.84001589 3.4280005
44.074551 6.3044829 -0.83691192 3.4040003
44.07592 6.3241606 -0.83921885 3.4199998
44.077633 6.3434944 -0.84152091 3.4360001
44.053257 6.3329391 -0.83841693 3.4120002
44.03915 6.3344049 -0.83747852 3.4040003
44.037716 6.3510494 -0.83924979 3.4160004
44.033672 6.3646564 -0.84048092 3.4240003
44.009476 6.3537359 -0.83737576 3.4000001
44.012878 6.3765059 -0.84023583 3.4199998
44.003708 6.3839097 -0.84038556 3.4200001
43.994965 6.3909154 -0.84052867 3.4199998
43.995152 6.4110279 -0.84285945 3.4360001
43.980942 6.4121523 -0.84192634 3.4280002
43.974087 6.4225645 -0.84262323 3.4320004
43.96719 6.4329586 -0.84332126 3.4360001
43.955395 6.4370699 -0.8429333 3.4320004
43.946011 6.444273 -0.84308958 3.4320004
43.946209 6.4640522 -0.84542274 3.4480004
43.92477 6.4554238 -0.8428607 3.428
43.927223 6.4783621 -0.84574121 3.4480004
43.905849 6.4695849 -0.84317899 3.4280002
43.893993 6.4734297 -0.8427946 3.4240005
43.891521 6.4899983 -0.84459049 3.4360001
43.877281 6.4905777 -0.84366274 3.4280002
43.865383 6.4942989 -0.84328032 3.4240005
43.849339 6.4911942 -0.84179914 3.4120004
43.840244 6.4976873 -0.84195477 3.4120004
43.832939 6.5077219 -0.8426652 3.4160001
43.816463 6.504777 -0.8411926 3.4040003
43.797768 6.4985027 -0.83917344 3.3880002
43.785912 6.5018997 -0.83879286 3.3840001
43.780792 6.5150409 -0.8400526 3.3920002
43.775604 6.5281792 -0.84131408 3.4000001
43.761456 6.5281959 -0.84038889 3.392
43.74733 6.5281491 -0.83946377 3.3840001
43.737629 6.5346255 -0.83963346 3.3840001
43.719147 6.5278606 -0.83761346 3.3680005
43.724689 6.5574102 -0.8416189 3.3960004
43.712719 6.5604906 -0.84124362 3.3920002
43.694286 6.5535474 -0.83922398 3.3760004
43.68713 6.5628576 -0.83993709 3.3800001
43.681572 6.5758038 -0.8412087 3.3880005
43.675449 6.5890579 -0.84249073 3.3960004
43.673969 6.6087022 -0.84486389 3.4120002
43.653999 6.597806 -0.84228683 3.3920002
43.648224 6.6106949 -0.84356391 3.4000001
43.640312 6.6202006 -0.84429288 3.4040003
43.632351 6.6296878 -0.84502316 3.4080002
43.624344 6.6391535 -0.84575462 3.4120004
43.616295 6.6485977 -0.84648716 3.4160004
43.604145 6.6512132 -0.84611994 3.4120002
43.60006 6.6674242 -0.84795612 3.4240005
43.599373 6.6907773 -0.85090566 3.4440002
43.587116 6.6933107 -0.85054159 3.4400001
43.577354 6.6989317 -0.85071987 3.4400001
43.56509 6.701376 -0.85035682 3.4360003
43.564041 6.7247372 -0.85331464 3.4560001
43.54977 6.7236676 -0.85240138 3.4480004
43.543766 6.736084 -0.85368764 3.4560001
43.536304 6.7447395 -0.85441339 3.4600005
43.534863 6.7681251 -0.85738015 3.4800003
43.512951 6.7529855 -0.85425758 3.4560001
43.517002 6.7868099 -0.85888767 3.4880002
43.495178 6.7715282 -0.85576445 3.4640002
43.492062 6.7911177 -0.85817575 3.4800003
43.475906 6.7861857 -0.85671246 3.4679999
43.472641 6.805759 -0.8591274 3.4840004
43.461975 6.811275 -0.85932755 3.4840004
43.459057 6.8305759 -0.86173666 3.5000002
43.43932 6.8183928 -0.85916519 3.4800003
43.429852 6.8275995 -0.85993254 3.4840004
43.415565 6.8258791 -0.85902506 3.4760003
43.408886 6.8380284 -0.86032927 3.4840004
43.403347 6.8539853 -0.86220109 3.4960003
43.391319 6.8554354 -0.86184084 3.4919999
43.382202 6.864233 -0.86260355 3.4960001
43.367905 6.8622885 -0.86169815 3.4880004
43.360435 6.8745947 -0.86301923 3.4960001
43.347298 6.876389 -0.86268175 3.4920001
43.344753 6.8994174 -0.865677 3.5120003
43.329323 6.893446 -0.86420572 3.5000002
43.321648 6.905664 -0.8655324 3.5080001
43.307358 6.9034376 -0.86462927 3.5000002
43.293625 6.9052544 -0.86430526 3.4960001
43.286385 6.9171376 -0.86562467 3.5040004
43.267887 6.9036412 -0.86303544 3.4840004
43.255844 6.904573 -0.8626799 3.4800003
43.250572 6.924108 -0.86514139 3.4960003
43.2327 6.9145212 -0.86313105 3.4800003
43.220108 6.9155521 -0.86278731 3.4760001
43.202919 6.9055815 -0.86076427 3.4600003
43.191902 6.9101558 -0.86098039 3.4600005
43.188416 6.9329996 -0.86399877 3.4800003
43.176365 6.93363 -0.86364591 3.4760003
43.162838 6.9305449 -0.86273241 3.4680004
43.15321 6.9386559 -0.86351275 3.4720001
43.144997 6.9504185 -0.86485553 3.4800003
43.135994 6.9603205 -0.86591923 3.4860001
43.1185 6.9501076 -0.86390537 3.4700005
43.107327 6.9543867 -0.86412752 3.4700005
43.093887 6.9510126 -0.86321437 3.4620004
43.084808 6.9607644 -0.86428118 3.4680002
43.0812 6.9853382 -0.86760098 3.4900002
43.06443 6.9746218 -0.86557436 3.4740002
43.035427 6.9282808 -0.85818315 3.4199998
43.012238 6.8987436 -0.85333312 3.3840001
43.003361 6.9103074 -0.85469306 3.3920002
42.992882 6.9139919 -0.85490417 3.392
42.977371 6.9068079 -0.85344493 3.3800001
42.966354 6.9105949 -0.85366762 3.3800004
42.950939 6.903286 -0.85220718 3.3680005
42.938671 6.9032278 -0.85186511 3.3640001
42.92696 6.9029422 -0.85151201 3.3600004
42.914719 6.9027925 -0.85117012 3.3559999
42.898136 6.8873577 -0.84855294 3.3360002
42.878086 6.8625998 -0.84452927 3.3060002
42.869022 6.8717022 -0.8456012 3.3120003
42.8605 6.8826675 -0.84695786 3.3200002
42.847221 6.8784842 -0.84604788 3.3120003
42.835144 6.8780317 -0.84570467 3.3080001
42.820782 6.8699551 -0.8442263 3.2960005
42.808758 6.8694034 -0.84388268 3.2920001
42.802357 6.8877931 -0.84638005 3.3080001
42.790295 6.8871698 -0.84603786 3.3040004
42.773876 6.8712788 -0.8434208 3.2840002
42.765144 6.8819752 -0.84478462 3.2920001
42.751011 6.8735847 -0.84330368 3.2800002
42.739056 6.872767 -0.84296072 3.2760003
42.731281 6.8871837 -0.84489715 3.2880003
42.718277 6.8824663 -0.8439852 3.2800007
42.703285 6.8700428 -0.841932 3.2640002
42.693398 6.8767052 -0.8427304 3.2680004
42.684464 6.8871698 -0.84410083 3.276
42.671566 6.8822622 -0.84318805 3.2680004
42.659676 6.8811426 -0.84284616 3.2640002
42.645905 6.8722906 -0.84136069 3.2520003
42.634071 6.8710756 -0.8410182 3.2479999
42.625023 6.8813667 -0.84239274 3.256
42.614098 6.8839254 -0.84262365 3.256
42.602268 6.8825893 -0.84228218 3.2520001
42.591 6.8810863 -0.84192908 3.2480001
42.579205 6.8796649 -0.84158754 3.2440002
42.570297 6.8937788 -0.84355259 3.256
42.558487 6.8922787 -0.84321207 3.2520003
42.543934 6.875134 -0.84056234 3.2320004
42.531403 6.8696623 -0.83964598 3.2240005
42.522369 6.8836355 -0.84161508 3.2360003
42.512222 6.8897161 -0.84242445 3.2400005
42.500267 6.8840098 -0.84149653 3.2320004
42.487812 6.8783636 -0.84057975 3.2240005
42.477642 6.8843312 -0.84139049 3.2280002
42.467434 6.8902655 -0.84220231 3.2320001
42.460072 6.9117365 -0.84532189 3.2520001
42.446922 6.9020352 -0.84382927 3.2400005
42.43454 6.8961782 -0.84291255 3.2320004
42.422207 6.8902721 -0.84199512 3.2240005
42.41391 6.9077311 -0.84454405 3.2400002
42.400936 6.8978405 -0.84304881 3.2280002
42.391228 6.9074297 -0.84444445 3.2360001
42.377716 6.8935394 -0.84236944 3.2200003
42.368515 6.9029717 -0.84375453 3.2280002
42.358711 6.9124603 -0.84515333 3.2360001
42.347675 6.9140892 -0.84539449 3.2360001
42.336067 6.9117632 -0.84505624 3.2320004
42.323364 6.9015589 -0.84355748 3.2200003
42.311283 6.8952246 -0.84263784 3.2120004
42.301895 6.9084539 -0.84462142 3.2240005
42.291389 6.9138088 -0.84544504 3.2280002
42.27935 6.907352 -0.84452546 3.2200003
42.268333 6.9087043 -0.84476864 3.2200003
42.25399 6.8825159 -0.84093809 3.1920002
42.246284 6.911294 -0.84525609 3.2200003
42.234364 6.9046659 -0.8443352 3.2120001
42.224655 6.9176617 -0.84632814 3.2240005
42.211506 6.8991485 -0.84365755 3.2040002
42.20052 6.9002643 -0.84390199 3.2040005
42.189529 6.9013414 -0.84414679 3.2040002
42.178913 6.9063196 -0.84497619 3.2080004
42.168076 6.9152508 -0.84640336 3.2160001
42.156685 6.9122734 -0.84606558 3.2120004
42.144516 6.8934393 -0.84337497 3.1920002
42.134197 6.9022083 -0.84479153 3.2
42.124062 6.9069576 -0.84561181 3.2040002
42.112751 6.9038219 -0.84527338 3.2
42.101467 6.9006462 -0.84493476 3.1960003
42.090473 6.9013777 -0.84518254 3.1960003
42.080242 6.9139166 -0.84719139 3.2080002
42.068481 6.9027257 -0.84567916 3.1960003
42.057484 6.9033422 -0.84592801 3.1960003
42.046055 6.8960185 -0.84500158 3.1880004
42.035679 6.908411 -0.84701502 3.2
42.023357 6.8812485 -0.84314603 3.1720002
42.013298 6.9014707 -0.84633839 3.1920002
42.0023 6.9018946 -0.84658873 3.1920002
41.990467 6.8943911 -0.8456732 3.184
41.979759 6.9026432 -0.84710312 3.1920002
41.969429 6.9068899 -0.84793198 3.1960003
41.958523 6.9111152 -0.84877443 3.2
41.94759 6.8915615 -0.84606129 3.1800003
41.936481 6.8838453 -0.8451308 3.1720002
41.924938 6.8800526 -0.84480333 3.168
41.914165 6.8920345 -0.84682941 3.1800001
41.903931 6.9118891 -0.85002887 3.2
41.89172 6.8961096 -0.84793961 3.1840003
41.881275 6.8881979 -0.84699523 3.1760001
41.870316 6.8960729 -0.84843421 3.1840003
41.859852 6.9039135 -0.84986198 3.1920002
41.848984 6.887979 -0.84774292 3.1760001
41.838039 6.8878298 -0.84799707 3.1760001
41.82703 6.8915968 -0.8488456 3.1800001
41.816223 6.883461 -0.8479116 3.1720004
41.805202 6.8871508 -0.84876108 3.1760001
41.794468 6.8789406 -0.84782612 3.168
41.783089 6.8944154 -0.85046279 3.184
41.771992 6.8979893 -0.85131514 3.1880002
41.76173 6.8778067 -0.8485918 3.1680002
41.75066 6.8813047 -0.84944403 3.1720004
41.738884 6.900569 -0.85268402 3.1920002
41.729004 6.8763299 -0.84936005 3.1680005
41.717503 6.8876119 -0.85140878 3.1800001
41.706985 6.8791046 -0.85047126 3.1720004
41.696072 6.878459 -0.85072875 3.1720002
41.685398 6.8738279 -0.85038817 3.1680002
41.675266 6.8612671 -0.84884989 3.1560001
41.663612 6.8723488 -0.85090387 3.168
41.653286 6.8636622 -0.84996331 3.1600003
41.643311 6.8509979 -0.84842223 3.1480002
41.632187 6.8540735 -0.84927928 3.1520004
41.621357 6.8531675 -0.84953696 3.1520004
41.609528 6.8640442 -0.85159677 3.164
41.597969 6.8709373 -0.85305774 3.1720002
41.588173 6.858098 -0.85151392 3.1600001
41.578087 6.8491659 -0.85056996 3.1520004
41.565323 6.8677459 -0.8538385 3.1720004
41.55526 6.8587379 -0.85289466 3.164
41.545254 6.849699 -0.85194975 3.1560001
41.534443 6.8484898 -0.85220957 3.1560001
41.523193 6.8511715 -0.85307288 3.1600003
41.513298 6.84203 -0.8521263 3.1520004
41.50346 6.8328571 -0.85117859 3.1440001
41.491734 6.8393497 -0.85264683 3.1520004
41.482964 6.8222647 -0.85048902 3.1360002
41.472248 6.820838 -0.85074842 3.1360002
41.459427 6.8350477 -0.85342908 3.1520004
41.450302 6.8177962 -0.85128087 3.1360002
41.439583 6.8202477 -0.85213381 3.1400001
41.429409 6.8187494 -0.85238135 3.1400001
41.408607 6.8115759 -0.85229599 3.1360002
41.396103 6.821609 -0.85437846 3.148
41.387882 6.8042622 -0.85221016 3.1320004
41.363987 6.8163061 -0.85516477 3.1480005
41.342754 6.8085947 -0.85509396 3.1440003
41.334164 6.795001 -0.85352868 3.1320004
41.310593 6.8067217 -0.85647845 3.1480002
41.30286 6.7891536 -0.85430074 3.132
41.291515 6.7909803 -0.85517329 3.1360002
41.283947 6.7733669 -0.85299218 3.1200004
41.25737 6.796207 -0.85779595 3.1480002
41.239384 6.7762671 -0.8558749 3.1320004
41.228832 6.7739902 -0.85613775 3.1320004
41.207428 6.7733045 -0.8572638 3.1360004
41.196884 6.770916 -0.85752732 3.1360004
41.188992 6.7569294 -0.85594922 3.1240001
41.17709 6.7582035 -0.85683942 3.1280005
41.168411 6.7480154 -0.85587335 3.1200001
41.146172 6.7507405 -0.85761607 3.1280005
41.137604 6.7404633 -0.85664833 3.1200004
41.128136 6.7339973 -0.85629535 3.1160004
41.117729 6.7313323 -0.85655802 3.1160004
41.108322 6.7248044 -0.85620415 3.1120002
41.095951 6.7297173 -0.85770047 3.1200001
41.086578 6.7231207 -0.85734648 3.1160002
41.075691 6.7201691 -0.85762262 3.1160002
41.057613 6.7069635 -0.85689914 3.1080003
41.046238 6.7078581 -0.85778022 3.112
41.038601 6.6974516 -0.85679215 3.1040001
41.029415 6.6906772 -0.85643518 3.1000001
41.016953 6.6952558 -0.8579365 3.108
41.006687 6.6922035 -0.85819924 3.1080003
40.997559 6.6853285 -0.85784173 3.1040001
40.990761 6.6708622 -0.85624242 3.0920005
40.978912 6.6713376 -0.85713804 3.0960002
40.968727 6.6681519 -0.8574 3.0960002
40.956184 6.6724706 -0.85890532 3.1040001
40.948391 6.661675 -0.85792404 3.0960002
40.94117 6.6510258 -0.85692823 3.0880003
40.933502 6.6401949 -0.8559444 3.0800004
40.917976 6.6516933 -0.85871029 3.0960002
40.905361 6.6557913 -0.86021912 3.1040001
40.896999 6.6487789 -0.85984516 3.1000001
40.884342 6.6527863 -0.86135572 3.1080003
40.883244 6.623127 -0.85724837 3.0800002
40.870625 6.6270685 -0.85875857 3.0880003
40.856651 6.6346827 -0.86089528 3.1000001
40.843941 6.6385126 -0.86240858 3.1080003
40.836052 6.6272402 -0.86143351 3.1000001
40.832794 6.6049995 -0.85856569 3.0800004
40.823338 6.60149 -0.85881352 3.0800004
40.805122 6.6199741 -0.86283469 3.1040001
40.797905 6.608788 -0.86184353 3.0960002
40.789345 6.6012783 -0.86147833 3.0920002
40.780327 6.5935516 -0.86112535 3.0880001
40.770416 6.589673 -0.8613869 3.0880003
40.758125 6.5933123 -0.86289209 3.0960002
40.746758 6.5930281 -0.86378288 3.1000004
40.742233 6.5741658 -0.86154199 3.0840003
40.735355 6.5628319 -0.86054409 3.0760002
40.71957 6.5734215 -0.86332357 3.0920002
40.708221 6.5729818 -0.86421531 3.0960002
40.706474 6.5508304 -0.86131185 3.0760002
40.695179 6.5503354 -0.86220276 3.0800006
40.688511 6.5388908 -0.86120093 3.0720003
40.680347 6.5310626 -0.86082923 3.0680001
40.6628 6.5449562 -0.86424756 3.0880001
40.658424 6.5257664 -0.86200595 3.0720003
40.641251 6.5397415 -0.86541504 3.0920002
40.629917 6.5389843 -0.86630905 3.096
40.628792 6.5167952 -0.86339164 3.0760002
40.615879 6.5195799 -0.86491823 3.0839999
40.60458 6.5187178 -0.86581242 3.0880003
40.593273 6.5178108 -0.86670721 3.0920005
40.583626 6.5132799 -0.86696798 3.0920002
40.568947 6.519433 -0.86913323 3.1040001
40.545727 6.5433488 -0.87447625 3.1360002
40.53941 6.5315299 -0.87346953 3.1280003
40.520622 6.5443444 -0.87692553 3.1480002
40.514355 6.5324626 -0.87591815 3.1400001
40.501648 6.5349808 -0.87744236 3.148
40.486671 6.5407386 -0.87961775 3.1600003
40.472916 6.5426464 -0.88117129 3.168
40.463188 6.537694 -0.8814376 3.168
40.457066 6.5256748 -0.88042796 3.1600001
40.445583 6.5241776 -0.88133162 3.164
40.438221 6.5158787 -0.88094538 3.1600003
40.428581 6.5108056 -0.88121057 3.1600003
40.421284 6.5024633 -0.88082319 3.1559999
40.413548 6.493845 -0.88044822 3.1520002
40.407722 6.4817286 -0.87943256 3.1440001
40.390686 6.4904385 -0.88225669 3.1600003
40.38303 6.4817352 -0.88188064 3.1560004
40.371609 6.479928 -0.8827855 3.1600003
40.358265 6.4815273 -0.88433218 3.168
40.346821 6.4796209 -0.88523841 3.1720002
40.32761 6.4914227 -0.88871276 3.1920002
40.316109 6.4893951 -0.88962132 3.1960003
40.304119 6.4870439 -0.89054388 3.2
40.308418 6.4575777 -0.88631028 3.1720004
40.291508 6.4659739 -0.88913417 3.1880004
40.279572 6.4635124 -0.89005643 3.1920002
40.269646 6.4576025 -0.89033532 3.1920002
40.262707 6.4488354 -0.88994318 3.1880004
40.261913 6.4299021 -0.88761663 3.1720002
40.25053 6.4275904 -0.88852483 3.1760001
40.238678 6.424943 -0.88944674 3.1800003
40.227287 6.4225349 -0.89035594 3.1840003
40.220524 6.413662 -0.88996071 3.1800001
40.22171 6.3910956 -0.88699293 3.1600003
40.206196 6.3952856 -0.88919395 3.1720002
40.192745 6.3960667 -0.89074987 3.1800001
40.183067 6.3898392 -0.89102566 3.1800001
40.178154 6.377243 -0.88999301 3.1720004
40.169003 6.3712635 -0.89025456 3.1720004
40.168976 6.3523445 -0.88791013 3.1560004
40.146866 6.3660965 -0.892061 3.1800001
40.14431 6.3501487 -0.89037603 3.1680002
40.137451 6.3407707 -0.88998723 3.1640003
40.135052 6.3248353 -0.88829857 3.1520004
40.117203 6.331758 -0.89115644 3.1680002
40.105976 6.3288202 -0.8920663 3.1720002
40.107761 6.3060398 -0.88908654 3.1520004
40.096603 6.3030529 -0.88999522 3.1560001
40.089977 6.2935576 -0.88960201 3.1520004
40.076565 6.2937164 -0.89116234 3.1600003
40.072723 6.2812676 -0.8901037 3.1520004
40.059307 6.2813358 -0.89166474 3.1600001
40.056984 6.2650223 -0.88997757 3.1480005
40.052868 6.2522383 -0.888928 3.1400001
40.039921 6.2525101 -0.89047658 3.1480002
40.035892 6.239697 -0.88942528 3.1400001
40.029144 6.2297306 -0.8890388 3.1360006
40.016209 6.2298727 -0.89058828 3.1440001
40.012753 6.2173557 -0.88952118 3.1360002
40.008934 6.2045145 -0.88846529 3.1280003
39.992764 6.207015 -0.89069557 3.1400001
39.991436 6.1910143 -0.88898277 3.1280005
39.982506 6.1840496 -0.88924736 3.1280005
39.976463 6.1742811 -0.88884294 3.1240001
39.968021 6.1675978 -0.88909405 3.1240003
39.952244 6.1701574 -0.8913148 3.1360002
39.956135 6.1479797 -0.88828135 3.1160002
39.938305 6.1538591 -0.89114755 3.1320002
39.945255 6.1289921 -0.88744009 3.1080003
39.926991 6.134428 -0.89032 3.1240003
39.916183 6.1306195 -0.89122754 3.1280003
39.909996 6.1203427 -0.8908307 3.1240003
39.901329 6.1130819 -0.89109176 3.1240003
39.898586 6.1004429 -0.89000934 3.1160002
39.89336 6.0908246 -0.88958484 3.1120002
39.874973 6.0958652 -0.8924709 3.1280003
39.874512 6.0798454 -0.89073819 3.1160004
39.863819 6.0757918 -0.89164507 3.1200001
39.863491 6.0597878 -0.88990915 3.1080003
39.858047 6.0497437 -0.88949317 3.1040001
39.844822 6.0485644 -0.89106047 3.112
39.836418 6.0410643 -0.89131749 3.1120002
39.830673 6.0305958 -0.890912 3.108
39.825378 6.0204759 -0.89049333 3.1040001
39.817471 6.0132656 -0.8907364 3.1040001
39.809593 6.0060291 -0.89097911 3.1040001
39.79372 6.0074692 -0.89321142 3.1160004
39.789326 5.9979897 -0.89276648 3.1120002
39.797649 5.9733524 -0.88902533 3.0880001
39.784504 5.9717951 -0.89059389 3.0960002
39.763214 5.9787669 -0.89415681 3.1160002
39.763233 5.9624043 -0.89241588 3.1040001
39.774273 5.9346952 -0.88801181 3.0760002
39.763924 5.9301424 -0.88891494 3.0800004
39.739822 5.939671 -0.89314729 3.1040001
39.726677 5.9377942 -0.89471853 3.1120002
39.724606 5.9246292 -0.89362496 3.1040001
39.722973 5.9118528 -0.89251798 3.0960002
39.724197 5.8963041 -0.89074236 3.0840001
39.716724 5.8887429 -0.8909784 3.0839999
39.695232 5.8949928 -0.89455199 3.1040001
39.701492 5.8731604 -0.89146096 3.0840001
39.685242 5.8733768 -0.89371222 3.0960002
39.692051 5.8519945 -0.89060473 3.0760002
39.670486 5.857955 -0.89418238 3.0960002
39.663517 5.8505945 -0.89440513 3.096
39.665173 5.8350868 -0.89261919 3.0840001
39.655037 5.8300171 -0.89352173 3.0880003
39.653568 5.8168378 -0.89241439 3.0800004
39.655064 5.8009973 -0.89063501 3.0680001
39.642117 5.7985306 -0.89220661 3.0760005
39.62553 5.7978649 -0.89447296 3.0880003
39.624252 5.784668 -0.89336139 3.0800006
39.614239 5.7793937 -0.89426285 3.0840001
39.616001 5.7635717 -0.8924771 3.0720003
39.594238 5.7687082 -0.89606637 3.0920005
39.593483 5.7558842 -0.89493948 3.0840001
39.592442 5.7426777 -0.89382249 3.0760005
39.570965 5.7479825 -0.89740366 3.096
39.578945 5.7270145 -0.89426559 3.0760002
39.560085 5.7292023 -0.89718664 3.0920005
39.54985 5.7232141 -0.89809918 3.0960002
39.557713 5.7019267 -0.89496648 3.0760005
39.557304 5.6891279 -0.89383143 3.0680001
39.547863 5.6839151 -0.89471912 3.0720003
39.528976 5.6857824 -0.89764339 3.0880003
39.518856 5.6796269 -0.8985548 3.0920002
39.521313 5.6638823 -0.89675224 3.0800006
39.502392 5.6655273 -0.89967924 3.0960002
39.498802 5.6547251 -0.89922684 3.0920002
39.489094 5.6488342 -0.90012646 3.0960002
39.476303 5.6453438 -0.901703 3.1040001
39.494511 5.6174374 -0.89650911 3.0720003
39.484909 5.6114998 -0.8974067 3.0760005
39.475639 5.605938 -0.89829338 3.0800004
39.45668 5.6071224 -0.90122503 3.096
39.447086 5.6010194 -0.90212369 3.1000001
39.437508 5.5948725 -0.90302247 3.1039999
39.44054 5.5792012 -0.90120614 3.0920005
39.437336 5.5682921 -0.90074569 3.0880003
39.424679 5.5644269 -0.90232235 3.0960002
39.421543 5.5534835 -0.90186071 3.0920002
39.41814 5.5421109 -0.90140867 3.0880003
39.411907 5.5334816 -0.90162504 3.0880003
39.396416 5.5321746 -0.9038716 3.1000001
39.387012 5.5257616 -0.90476853 3.1040001
39.396606 5.505187 -0.90158993 3.0840001
39.377609 5.505558 -0.90452933 3.1000001
39.387962 5.4859376 -0.90132517 3.0800004
39.372208 5.4839435 -0.90358353 3.0920002
39.362934 5.4773908 -0.90447867 3.0960002
39.369942 5.4596748 -0.90196168 3.0800002
39.347389 5.4614973 -0.90559691 3.1000001
39.357788 5.4416203 -0.90239388 3.0800004
39.345352 5.4371591 -0.90397036 3.0880003
39.329628 5.4348102 -0.90623099 3.1000001
39.336941 5.4172082 -0.90370607 3.0840001
39.334446 5.4061432 -0.90323061 3.0800004
39.331997 5.395081 -0.90275407 3.0760002
39.33622 5.3797584 -0.90090722 3.0640001
39.313942 5.3814435 -0.90453732 3.0840001
39.31826 5.366128 -0.90268826 3.0720003
39.295959 5.3676333 -0.90632045 3.0920002
39.307056 5.348156 -0.90309787 3.0720003
39.288372 5.3478861 -0.9060353 3.0880001
39.286179 5.3367448 -0.90555358 3.0840001
39.304222 5.3133073 -0.90095204 3.0560002
39.275177 5.3185482 -0.90596032 3.0840003
39.269726 5.3094225 -0.9061628 3.0840001
39.254147 5.3063202 -0.90842646 3.0960002
39.255524 5.2931147 -0.9072535 3.0880003
39.246761 5.2859111 -0.90814233 3.0920005
39.234608 5.280642 -0.90971911 3.1000001
39.253189 5.2576084 -0.9051016 3.0720003
39.24427 5.2498999 -0.90599829 3.0760002
39.239056 5.2406654 -0.90619612 3.0760002
39.251053 5.2217627 -0.90294802 3.0560005
39.239056 5.2163892 -0.90452206 3.0640001
39.234215 5.2076011 -0.90470761 3.0640004
39.218784 5.2040153 -0.90697181 3.0760002
39.192966 5.2059865 -0.91130722 3.1000001
39.205246 5.1872234 -0.90805131 3.0800002
39.207203 5.1741371 -0.90686411 3.072
39.205982 5.1633973 -0.90635645 3.0680001
39.200829 5.1535611 -0.90655804 3.0680001
39.171497 5.1569257 -0.91158873 3.0960002
39.176865 5.1415372 -0.90971601 3.0840001
39.172031 5.1320691 -0.9099071 3.0840003
39.178009 5.1177044 -0.90801179 3.0720003
39.180294 5.1046968 -0.90681624 3.0640004
39.182407 5.0912495 -0.90562844 3.0560005
39.156563 5.0922809 -0.90997231 3.0800004
39.151901 5.0827408 -0.91016001 3.0800004
39.157902 5.0680199 -0.90826708 3.0680001
39.150005 5.0606737 -0.90913707 3.0720003
39.127678 5.0595994 -0.91279137 3.0920002
39.115784 5.0528469 -0.91437459 3.1000001
39.12196 5.0381479 -0.91247743 3.0880003
39.113914 5.0301485 -0.9133563 3.0920002
39.123787 5.0138726 -0.91076118 3.0760002
39.105282 5.0112429 -0.91371435 3.0920002
39.090134 5.0063934 -0.91598266 3.1040001
39.114532 4.9837418 -0.91060168 3.0720003
39.10305 4.9772506 -0.91217327 3.0800004
39.094971 4.9686236 -0.91305816 3.0840001
39.072685 4.9667273 -0.91671848 3.1040001
39.093781 4.9459829 -0.91202372 3.0760005
39.075348 4.9429016 -0.91497904 3.0920005
39.074837 4.9315453 -0.91446018 3.0880003
39.078003 4.9186788 -0.91324311 3.0800004
39.059395 4.9149003 -0.91620839 3.0960002
39.044422 4.9095106 -0.91847718 3.1080003
39.044048 4.8980975 -0.91795564 3.1040001
39.051025 4.8837547 -0.91603702 3.0920005
39.035923 4.8777232 -0.91831428 3.1040001
39.032009 4.8677635 -0.9184882 3.1040001
39.028133 4.85779 -0.91866142 3.1040001
39.038986 4.8421307 -0.91603827 3.0880003
39.02803 4.8354917 -0.91759896 3.096
39.024265 4.8255053 -0.91776973 3.0960002
39.016663 4.8163848 -0.91864777 3.1000001
39.005577 4.8090911 -0.9202168 3.1080003
39.024277 4.7914038 -0.91617775 3.0840001
39.00956 4.785428 -0.91844565 3.0960002
39.009499 4.7735467 -0.91792077 3.0920005
38.994812 4.7674398 -0.92018896 3.1040001
38.965271 4.766449 -0.92526114 3.132
38.978493 4.7504444 -0.92227328 3.1140003
38.977062 4.7401543 -0.92207974 3.1120002
38.979225 4.7280951 -0.92119205 3.1060002
38.962765 4.7223144 -0.92381144 3.1200004
38.964836 4.709734 -0.92293018 3.1140003
38.955898 4.7013621 -0.92414582 3.1200001
38.956348 4.6899137 -0.9236055 3.1160004
39.079384 4.6480212 -0.90045965 2.9840004
38.934853 4.6741652 -0.9267379 3.1320004
39.077106 4.6277084 -0.90005678 2.9800003
39.054272 4.6137667 -0.90351778 2.9980004
38.925514 4.643713 -0.92720902 3.1320002
39.036057 4.6079483 -0.90649098 3.0140004
38.911812 4.6252513 -0.92893225 3.1400001
39.062248 4.5785403 -0.90081239 2.9800005
39.051823 4.5708809 -0.90236938 2.9880002
39.057674 4.5483351 -0.90054554 2.9760001
39.043537 4.5416451 -0.90280592 2.9880002
39.044594 4.5306654 -0.90224773 2.9840002
39.041893 4.52074 -0.9023934 2.9840004
39.043026 4.5097804 -0.90183324 2.9800005
39.028851 4.5023818 -0.90410048 2.9920001
39.033867 4.4904089 -0.90283316 2.9840004
38.867905 4.5248156 -0.93329269 3.1560001
39.035118 4.4794617 -0.9022702 2.9800005
38.862583 4.5037169 -0.93359256 3.1560004
39.026291 4.4604926 -0.90325916 2.9840004
39.03339 4.4481459 -0.90163392 2.9740002
39.034462 4.4273334 -0.90084493 2.9680002
39.024456 4.419179 -0.90239626 2.9760001
39.002968 4.4136314 -0.90606874 2.9960001
38.996838 4.4044366 -0.9069134 3.0000002
38.986897 4.3960705 -0.90846509 3.0080004
39.007729 4.3808479 -0.90435606 2.9840004
38.995934 4.3728843 -0.90626013 2.9940004
38.982235 4.3652554 -0.90851831 3.006
38.982037 4.3547077 -0.90829837 3.0040004
38.983807 4.3437691 -0.90772337 3.0000002
38.993332 4.3312864 -0.90573025 2.9880002
38.991329 4.3211827 -0.90586132 2.9880002
38.970039 4.3148451 -0.90953583 3.0080004
38.964325 4.305912 -0.91036874 3.0120001
38.95467 4.297163 -0.91191697 3.0200002
38.960526 4.2854943 -0.91062772 3.0120003
38.94125 4.2784314 -0.91394883 3.0300004
38.939339 4.2676311 -0.9140836 3.0300002
38.937557 4.2573385 -0.91421109 3.0300004
38.955215 4.2437415 -0.9107877 3.0100002
38.974873 4.2299504 -0.90700674 2.9880002
38.969418 4.2209244 -0.90783441 2.9920001
38.950306 4.2135258 -0.91115457 3.0100002
38.964272 4.2008491 -0.90843469 2.9940004
38.976341 4.18857 -0.90606821 2.9800005
38.966972 4.1790562 -0.9076162 2.9880002
38.961678 4.1699352 -0.90844101 2.9920001
38.944645 4.1619282 -0.91140521 3.0080006
38.943233 4.1516552 -0.91152406 3.0080004
38.945755 4.140852 -0.91093045 3.0040004
38.960026 4.1285415 -0.90820044 2.9880002
38.943111 4.1203098 -0.91116387 3.0040002
38.943798 4.1097898 -0.91092336 3.0020001
38.942627 4.100028 -0.91103232 3.0020001
38.949245 4.0888362 -0.90972143 2.9940004
38.959824 4.0772514 -0.90769655 2.9820001
38.958702 4.0670314 -0.90780813 2.9820001
38.953655 4.0567122 -0.90863723 2.9860001
38.938904 4.047874 -0.91124284 3.0000002
38.977104 4.0342178 -0.90421575 2.96
38.944794 4.0270529 -0.91002965 2.9920001
38.949684 4.015727 -0.90907282 2.9860003
38.944859 4.0058193 -0.90989333 2.9900002
38.945992 3.9958947 -0.90963739 2.9880002
38.951042 3.9851487 -0.90867198 2.9820001
38.97179 3.9727101 -0.90485454 2.96
38.947487 3.9642794 -0.90924221 2.9840004
38.946796 3.9545307 -0.9093399 2.9840004
38.95396 3.9437382 -0.90801311 2.9760001
38.953278 3.9329872 -0.90811908 2.9760001
38.952633 3.9222336 -0.90822417 2.9760001
38.956013 3.9122801 -0.90760368 2.9720004
38.951569 3.9027689 -0.9084121 2.9760001
38.95108 3.893034 -0.90850496 2.9760001
38.954514 3.882092 -0.90789157 2.9720004
38.967819 3.8707588 -0.90548861 2.9580004
38.957592 3.8609517 -0.907372 2.9680002
38.941494 3.8512836 -0.91032857 2.9840004
38.95298 3.8411362 -0.9082706 2.9720004
38.952702 3.8314064 -0.90835869 2.9720004
38.960308 3.8209653 -0.90701872 2.9640005
38.952217 3.8109205 -0.90854174 2.9720004
38.952019 3.800164 -0.90863651 2.9720004
38.942024 3.7895484 -0.91052121 2.9820004
38.959618 3.7790744 -0.90738612 2.9640005
38.955605 3.7688861 -0.90819019 2.9680002
38.939823 3.7592294 -0.91113943 2.9840002
38.928009 3.7494657 -0.91337198 2.9960001
38.959515 3.7392228 -0.90772277 2.9640005
38.951706 3.728955 -0.90924114 2.9720004
38.955738 3.7187483 -0.90860772 2.9680004
38.959816 3.7080574 -0.90797734 2.9640005
38.952114 3.6977074 -0.9094938 2.9720004
38.956257 3.6875436 -0.90885752 2.9680004
38.960419 3.6779191 -0.90821624 2.9640005
38.95676 3.6675968 -0.90901321 2.9680004
38.964939 3.6576118 -0.90765619 2.9600003
38.955452 3.6470757 -0.90952849 2.9700003
38.957802 3.6369169 -0.90924656 2.9680004
38.958221 3.6266937 -0.90932268 2.9680004
38.966537 3.6168239 -0.90796149 2.96
38.959164 3.6062505 -0.90947235 2.9680002
38.951832 3.5956247 -0.91098273 2.9760001
38.96814 3.5857401 -0.90818524 2.96
38.956951 3.5748572 -0.91041279 2.9720004
38.965408 3.5656321 -0.90904301 2.9640002
38.966076 3.5554352 -0.90911317 2.9640005
38.958927 3.5446954 -0.91062015 2.9720004
38.951817 3.5339022 -0.91212678 2.9800003
38.960484 3.5237479 -0.91075999 2.9720004
38.969139 3.514164 -0.9093886 2.9640005
38.958225 3.5029945 -0.91161215 2.9760001
38.95911 3.4927726 -0.91167748 2.9760001
38.963902 3.4834199 -0.91101927 2.9720004
38.960941 3.4728494 -0.91180235 2.9760001
38.973728 3.4632769 -0.90970951 2.9640005
38.970787 3.4532213 -0.91048771 2.9680004
38.948311 3.4410968 -0.91486406 2.9920001
38.965061 3.4325325 -0.91204536 2.9760001
38.958374 3.4214623 -0.9135446 2.9840004
38.963451 3.411691 -0.91288334 2.9800005
38.968563 3.401952 -0.91222101 2.9760001
38.954178 3.3898561 -0.91515845 2.9920003
38.963268 3.3806036 -0.91377425 2.9840002
38.960678 3.3698947 -0.91454983 2.9880002
38.950329 3.3581257 -0.91676545 3.0000002
38.951721 3.3478765 -0.91681927 3.0000002
38.957047 3.3381786 -0.9161517 2.9960001
38.950718 3.3268342 -0.91764492 3.0040002
38.956108 3.3171606 -0.91697556 3.0000005
38.965424 3.3081052 -0.9155845 2.9920003
38.963104 3.2973089 -0.9163546 2.9960001
38.94722 3.2843409 -0.91964704 3.0140004
38.943043 3.2731395 -0.92077637 3.0200005
38.952492 3.2641492 -0.91938156 3.0120003
38.958092 3.2545626 -0.91870677 3.0080004
38.954029 3.2433381 -0.91983366 3.0140004
38.950008 3.232079 -0.92095989 3.0200005
38.944096 3.2204382 -0.92244595 3.0280001
38.951775 3.2112322 -0.92140698 3.0220003
38.971081 3.2042418 -0.918203 3.0040002
38.961414 3.1918571 -0.92040789 3.0159998
38.998245 3.1878943 -0.91395718 2.9800005
39.007851 3.1798451 -0.91255099 2.9720004
39.009861 3.1697989 -0.91258878 2.9720006
39.015663 3.161051 -0.91190237 2.9680002
39.021591 3.1518345 -0.91121674 2.9640005
39.016006 3.140202 -0.91269523 2.9720006
39.014313 3.1293542 -0.91345125 2.9760001
39.028141 3.1213632 -0.91132116 2.9640005
39.038036 3.1131029 -0.90991002 2.9560001
39.057545 3.1070848 -0.90669322 2.9380002
39.054062 3.0958848 -0.90780652 2.9440005
39.056252 3.0864944 -0.90783471 2.9440002
39.050938 3.074795 -0.90930748 2.9520001
39.053314 3.0649002 -0.90933555 2.9519999
39.06337 3.0568883 -0.90791869 2.9440002
39.050545 3.043231 -0.91083318 2.96
39.056847 3.0342994 -0.91013664 2.9560003
39.063179 3.025403 -0.90943909 2.9519999
39.05431 3.0125759 -0.91162938 2.9640002
39.056904 3.0026922 -0.91165233 2.9640005
39.055737 2.9917998 -0.91239661 2.9680004
39.065998 2.9839842 -0.91097325 2.96
39.072487 2.9751871 -0.91027129 2.9560001
39.071426 2.9643092 -0.91101295 2.96
39.066341 2.9533274 -0.91247445 2.9680004
39.065502 2.9419107 -0.91321552 2.9720004
39.075901 2.9342606 -0.91178763 2.9640005
39.067596 2.92063 -0.91397166 2.9760001
39.089363 2.916415 -0.91037458 2.9560001
39.084763 2.9043787 -0.9118337 2.9640005
39.080212 2.8923008 -0.91329193 2.9720004
39.079472 2.8813443 -0.91402692 2.9760003
39.075016 2.8691959 -0.91548353 2.9840002
39.093113 2.8641458 -0.91260427 2.9680004
39.099972 2.8556011 -0.91189158 2.9640002
39.076927 2.8373632 -0.91695833 2.9920003
39.085739 2.8294039 -0.91588265 2.9860003
39.090843 2.8202519 -0.9155286 2.9840002
39.094109 2.8104973 -0.91553497 2.9840002
39.104858 2.8032904 -0.91409528 2.9760003
39.100746 2.7910209 -0.91554505 2.9840002
39.100403 2.7800062 -0.91627139 2.9880002
39.111233 2.7729001 -0.91482908 2.9800005
39.11837 2.7645373 -0.9141084 2.9760001
39.110729 2.7508771 -0.91627723 2.9880002
39.106846 2.7384982 -0.91772264 2.9960001
39.11409 2.7301588 -0.9169994 2.9920003
39.121357 2.7218585 -0.9162752 2.9880002
39.136017 2.7163668 -0.91410494 2.9760001
39.128613 2.7025738 -0.91626936 2.9880002
39.117603 2.6873055 -0.91915548 3.0040002
39.121334 2.677645 -0.91915035 3.0040002
39.121437 2.6665597 -0.91986692 3.0080001
39.117737 2.6544952 -0.92130542 3.016
39.128887 2.6477585 -0.91985255 3.0080004
39.121815 2.6337128 -0.92201155 3.0200005
39.118446 2.6210904 -0.92344701 3.0280001
39.122608 2.6109502 -0.92343599 3.0280001
39.133869 2.6043339 -0.92197961 3.0200005
39.134064 2.5936837 -0.92269039 3.0240002
39.138123 2.5840802 -0.92267722 3.0240002
39.131367 2.5698371 -0.9248305 3.0360003
39.135509 2.5602238 -0.92481548 3.0360005
39.143288 2.552202 -0.92407715 3.0319998
39.158287 2.5473988 -0.92189324 3.0200005
39.144539 2.5298712 -0.9254874 3.0400002
39.138058 2.5154605 -0.92763579 3.0520003
39.145973 2.5074985 -0.92689389 3.0480001
39.139603 2.4930182 -0.92904031 3.0600002
39.144012 2.483434 -0.92901886 3.0600002
38.438175 2.143995 -0.93672335 3.8340001
38.433067 2.126909 -0.93844754 3.846
38.449482 2.1199551 -0.93666393 3.8340001
38.433784 2.0977025 -0.94013888 3.8580003
38.460953 2.0959933 -0.93659991 3.8340001
38.456085 2.0788362 -0.93831921 3.8460002
38.451294 2.0616264 -0.94003713 3.8580003
38.464302 2.0531621 -0.9388324 3.8500004
38.463173 2.0376785 -0.93996364 3.8580003
38.483303 2.032876 -0.93758845 3.8420002
38.478748 2.0156112 -0.93930137 3.8540001
38.473965 1.9988909 -0.94101501 3.8659999
38.469872 1.9809254 -0.94272316 3.8780003
38.458542 1.9598354 -0.94559991 3.8980002
38.471817 1.9515693 -0.94438738 3.8900001
38.481613 1.9415157 -0.94375777 3.8860002
38.477493 1.9240247 -0.94546264 3.8980002
38.487373 1.9140153 -0.94483083 3.8940003
38.472961 1.8907862 -0.94828421 3.9180002
38.469078 1.8731556 -0.94998473 3.9299998
38.475655 1.8612326 -0.94993281 3.9300003
38.461552 1.8377444 -0.95338136 3.9540002
38.488934 1.8374588 -0.94982553 3.9300001
38.461235 1.8060477 -0.95560509 3.9700003
38.461182 1.7901634 -0.95671487 3.9780002
38.461197 1.7742531 -0.95782322 3.9860003
38.457863 1.7563279 -0.95951349 3.9980001
38.461433 1.7423627 -0.96003574 4.0019999
38.468468 1.7304149 -0.95997351 4.0019999
38.455154 1.7063248 -0.96340889 4.0259995
38.482662 1.7065909 -0.9598456 4.0020003
38.482693 1.6912088 -0.96094912 4.0100002
38.48315 1.675209 -0.96204805 4.0180001
38.487415 1.6606684 -0.96255916 4.0220003
38.491371 1.6467245 -0.96307236 4.026
38.515514 1.6453733 -0.96008795 4.006
38.499454 1.6188407 -0.96409494 4.0340004
38.516937 1.6133926 -0.9622739 4.0220003
38.507759 1.5909688 -0.96511215 4.0420003
38.51532 1.5791824 -0.96503633 4.0420003
38.52956 1.5717368 -0.96379471 4.0340004
38.537189 1.5600266 -0.96371675 4.0340004
38.534954 1.5418022 -0.96538413 4.046
38.532799 1.5235357 -0.9670499 4.0580001
38.524162 1.5008197 -0.96987814 4.0780001
38.531643 1.4896765 -0.9697988 4.0780001
38.546104 1.4824252 -0.96855044 4.0700002
38.550781 1.4685345 -0.96904653 4.0740004
38.549 1.4501534 -0.97070473 4.086
38.553806 1.4362512 -0.97119802 4.0900002
38.561909 1.4246259 -0.97110844 4.0900002
38.547421 1.3970497 -0.97508776 4.118
38.578236 1.4014604 -0.97092569 4.0900002
38.573589 1.3806982 -0.97315758 4.1060009
38.562637 1.3552432 -0.97654992 4.1299996
38.577423 1.3483045 -0.97529143 4.1220002
38.585831 1.336762 -0.97519404 4.1219997
38.59428 1.3252485 -0.97509551 4.1219997
38.586891 1.3019571 -0.97789961 4.1420007
38.604965 1.2975657 -0.97605616 4.1299996
38.613548 1.2861202 -0.97595388 4.1300001
38.622173 1.2747037 -0.9758504 4.1300001
38.624557 1.2585053 -0.97690654 4.1379995
38.633278 1.2471282 -0.97680056 4.138
38.64204 1.235781 -0.97669339 4.138
38.653957 1.2269025 -0.97600496 4.1340003
38.672115 1.2229774 -0.97415572 4.1220002
38.66856 1.2019234 -0.97636485 4.138
38.680573 1.1931705 -0.97567326 4.1340003
38.685989 1.1800659 -0.97614563 4.138
38.697609 1.1719518 -0.97545773 4.1340003
38.703568 1.1583273 -0.97592205 4.138
38.725323 1.1567278 -0.97348255 4.1220002
38.725254 1.1381285 -0.97510296 4.1340003
38.713581 1.1088023 -0.97903204 4.1620002
38.734947 1.1079216 -0.97659546 4.1460004
38.750233 1.1020448 -0.97531635 4.138
38.753479 1.0859706 -0.97635156 4.1460004
38.75079 1.0647311 -0.97854239 4.1620002
38.759716 1.0543413 -0.97842336 4.1620002
38.774651 1.0491767 -0.97714651 4.1540003
38.798985 1.051367 -0.97412789 4.1340003
38.796558 1.0301239 -0.97631264 4.1500001
38.785366 1.0009427 -0.98022932 4.1779995
38.797935 0.99276733 -0.97952002 4.1740003
38.819344 0.9925952 -0.97707641 4.1580005
38.834854 0.98721957 -0.97578806 4.1500001
38.832836 0.96589541 -0.9779641 4.1660008
38.828018 0.94184232 -0.98071527 4.1860003
38.855259 0.94732213 -0.97711438 4.1620002
38.859772 0.9308207 -0.97812378 4.1700001
38.875896 0.92516375 -0.97682363 4.1620002
38.891525 0.92010903 -0.97552973 4.1539998
38.889473 0.89925957 -0.9777025 4.1700001
38.91037 0.9002955 -0.97526073 4.1540003
38.903267 0.87340856 -0.978576 4.178
38.924675 0.87405062 -0.97612578 4.1620002
38.926258 0.85540962 -0.97770846 4.1740003
38.930752 0.83952475 -0.97871315 4.1820002
38.935322 0.82363558 -0.97971618 4.1900001
38.962341 0.83014941 -0.97611171 4.1660008
38.955833 0.80308962 -0.97941476 4.1900001
38.971699 0.79851127 -0.97811151 4.1819997
38.965416 0.77136707 -0.98141009 4.2060003
38.975838 0.76118159 -0.98125488 4.2059999
38.98904 0.75388098 -0.98052347 4.2020001
39.004997 0.7494967 -0.97921646 4.1940002
39.006783 0.73134637 -0.98079044 4.2060003
39.020588 0.7236824 -0.98004812 4.2019997
39.028465 0.71080256 -0.9804619 4.2060003
39.039097 0.70083642 -0.98029995 4.2060003
39.057293 0.70012307 -0.97842276 4.1940002
39.073853 0.69559789 -0.97710305 4.1860003
39.068531 0.66823959 -0.98038119 4.21
39.079311 0.65841436 -0.9802146 4.21
39.089584 0.64911509 -0.98005539 4.21
39.108341 0.64822245 -0.97816688 4.198
39.113937 0.63261199 -0.9791438 4.2060003
39.103912 0.59917545 -0.98355681 4.2380004
39.125355 0.60139561 -0.98109239 4.2220001
39.138962 0.59475899 -0.98034614 4.2180004
39.15258 0.58817887 -0.97959918 4.2139997
39.163639 0.5786469 -0.9794237 4.2140002
39.174732 0.56915498 -0.97924715 4.2139997
39.185856 0.55970097 -0.97906953 4.2140002
39.209724 0.56545877 -0.97603178 4.1940002
39.220863 0.55612803 -0.97585285 4.1940002
39.239597 0.55599213 -0.97395843 4.1819997
39.243233 0.53758121 -0.9754917 4.1940002
39.254467 0.52836728 -0.97530955 4.1940002
39.265732 0.51919246 -0.97512633 4.1940002
39.289421 0.52549386 -0.97208816 4.1740007
39.300701 0.51644063 -0.97190368 4.1740003
39.302181 0.49500895 -0.97399974 4.1900001
39.31601 0.48911381 -0.97324222 4.1860003
39.324406 0.4774797 -0.97363347 4.1900001
39.333996 0.46497345 -0.97400451 4.1940002
39.350311 0.46235371 -0.97267443 4.1860003
39.361805 0.45351338 -0.9724831 4.1860003
39.370941 0.44155908 -0.97285998 4.1899996
39.387268 0.43911934 -0.97152805 4.1819997
39.405952 0.43992591 -0.96962684 4.1700001
39.415169 0.42809963 -0.97000092 4.1740003
39.422092 0.41310835 -0.97094202 4.1819997
39.433758 0.40451932 -0.97074461 4.1819997
39.467537 0.42642283 -0.96514821 4.1440005
39.471058 0.40674543 -0.96693856 4.158
39.489655 0.40799189 -0.9650358 4.1460004
39.490475 0.38307214 -0.96766406 4.1660004
39.519337 0.39900851 -0.96320653 4.1360002
39.542389 0.40699077 -0.96016902 4.1160002
39.556873 0.40411019 -0.95912713 4.1100001
39.573063 0.40251517 -0.95779139 4.1020002
39.575832 0.38137627 -0.95985526 4.118
39.583164 0.36677027 -0.96078378 4.1260004
39.601624 0.36859989 -0.95887917 4.1140003
39.606846 0.35075998 -0.96037108 4.1260009
39.625294 0.35271788 -0.9584657 4.1140003
39.631237 0.33452153 -0.95994395 4.1260004
39.64967 0.33661222 -0.95803779 4.1140003
39.670212 0.34211397 -0.95556659 4.098
39.690689 0.34771657 -0.95309621 4.0820003
39.694065 0.32671189 -0.95514488 4.098
39.708149 0.32242036 -0.95436805 4.0940003
39.713814 0.30477047 -0.9558481 4.1060004
39.727951 0.30056238 -0.95506924 4.1020002
39.748337 0.30651617 -0.95259792 4.086
39.757702 0.29606366 -0.95295697 4.0900002
39.769775 0.28864789 -0.95274037 4.0900002
39.788017 0.29144382 -0.95083266 4.0780001
39.796032 0.27734041 -0.95174104 4.086
39.818291 0.28707862 -0.94870716 4.066
39.820942 0.26245832 -0.95129055 4.086
39.823135 0.23817086 -0.9538818 4.1060004
39.845348 0.24811172 -0.95084721 4.086
39.878712 0.27910948 -0.9444527 4.0420003
39.881023 0.25492215 -0.94704038 4.0620003
39.906902 0.27205825 -0.94288552 4.0340004
39.917118 0.26171184 -0.94322395 4.0379996
39.92931 0.25485349 -0.9429999 4.0379996
39.951103 0.26536918 -0.9399702 4.0180001
39.963284 0.25862908 -0.93974543 4.0180001
39.976433 0.25367141 -0.9392395 4.0160003
39.986771 0.2435348 -0.93957335 4.02
40.000893 0.240412 -0.93878579 4.0160003
40.008835 0.22717595 -0.93968862 4.0240002
40.027596 0.23290753 -0.93750054 4.0100002
40.03714 0.22116756 -0.93810999 4.0160003
40.040092 0.19505477 -0.94094282 4.0379996
40.056126 0.19567585 -0.93959206 4.0300002
40.070339 0.19283509 -0.93879992 4.026
40.082771 0.18651199 -0.93856585 4.026
40.095226 0.18023181 -0.93833089 4.026
40.110588 0.18140721 -0.93699092 4.0180001
40.127792 0.1817224 -0.93561566 4.0100002
40.139641 0.17590499 -0.93539089 4.0100002
40.157288 0.18052983 -0.93348157 3.9980001
40.175964 0.18910766 -0.93102771 3.9820001
40.18502 0.1759932 -0.9319039 3.9900005
40.19751 0.17007089 -0.93166506 3.9900002
40.218365 0.18215275 -0.92864388 3.97
40.230831 0.17634749 -0.92840463 3.97
40.24332 0.17058492 -0.92816454 3.9700005
40.262356 0.17930484 -0.92570126 3.9540002
40.272221 0.16614079 -0.92655909 3.9619999
40.291164 0.17500806 -0.92409658 3.9460001
40.303658 0.16945696 -0.92385465 3.9459999
40.313961 0.16059136 -0.92417872 3.9500003
40.328072 0.15875769 -0.92338055 3.9460001
40.34684 0.16790795 -0.92091972 3.9300003
40.354729 0.15160584 -0.92233717 3.9419999
40.373421 0.16089272 -0.91987699 3.9259999
40.39114 0.1663456 -0.91795915 3.9140003
40.400654 0.15381408 -0.91881984 3.9220002
40.410233 0.14130569 -0.91967869 3.9300003
40.423691 0.14010096 -0.9188903 3.9260004
40.443634 0.1534152 -0.91587991 3.9059999
40.453293 0.14102578 -0.91673601 3.914
40.467342 0.13973236 -0.91593474 3.9100001
40.478531 0.13110089 -0.9162364 3.914
40.498875 0.14446473 -0.91321623 3.8940001
40.512871 0.14334583 -0.91241467 3.8900001
40.526863 0.1422801 -0.91161287 3.8859999
40.533333 0.12292671 -0.91357636 3.9020002
40.552086 0.13286948 -0.91110927 3.8860002
40.566071 0.13195562 -0.91030627 3.882
40.582718 0.13855457 -0.90840352 3.8700001
40.597984 0.14149141 -0.90705109 3.8620002
40.60273 0.11457729 -0.91009301 3.8860002
40.618023 0.11760259 -0.90873915 3.8780003
40.635845 0.12818742 -0.90628815 3.862
40.65041 0.13156247 -0.90494823 3.8540003
40.664936 0.13499451 -0.90360868 3.8460004
40.672581 0.11570406 -0.90554446 3.862
40.689606 0.12257338 -0.90363067 3.8500006
40.705936 0.12972569 -0.90173072 3.8380003
40.716171 0.11807489 -0.90256727 3.8460004
40.730049 0.11778784 -0.90176147 3.8420005
40.738659 0.098438501 -0.9036755 3.858
40.758404 0.11717463 -0.90013641 3.8340001
40.768791 0.10567331 -0.90096831 3.8420002
40.784302 0.11336994 -0.8990826 3.8300004
40.795391 0.10175252 -0.89989924 3.8380005
40.809719 0.10575867 -0.89855933 3.8300002
40.820251 0.094405413 -0.89938664 3.8380003
40.829117 0.079455614 -0.90077013 3.8500004
40.846237 0.091041803 -0.89832705 3.8340001
40.860077 0.091248512 -0.89751804 3.8300004
40.867214 0.064575434 -0.90050262 3.8540003
40.88319 0.072514057 -0.89860421 3.8420005
40.898071 0.076691151 -0.89725018 3.8340001
40.91328 0.084929705 -0.89536685 3.8220005
40.924736 0.073711395 -0.89617169 3.8300004
40.932678 0.051174164 -0.89861542 3.8500004
40.948498 0.059394598 -0.89671826 3.8380005
40.962646 0.063995838 -0.89537752 3.8300002
40.974289 0.05293107 -0.89617682 3.8380003
40.989979 0.061327457 -0.89428109 3.8260002
40.996475 0.031220436 -0.89779693 3.8540001
41.008812 0.028287172 -0.89753658 3.8540001
41.021812 0.025243521 -0.89726192 3.8540003
41.036564 0.029977322 -0.89590615 3.8460002
41.049557 0.02703023 -0.89563078 3.8460004
41.060219 0.016529083 -0.89644796 3.8540001
41.075756 0.025289297 -0.89455271 3.8420002
